34.0993 -69.5078 31.8498
17.6529 -52.1324 55.5475
17.6529 -52.1324 5.2986
12.4591 -59.0575 0.8751
12.5006 -59.0525 55.9713
7.6665 -65.9701 30.4293
7.2652 -65.9826 45.3263
7.2652 -65.9826 2.1136
24.5780 -52.9980 16.2004
19.3842 -59.9231 56.2695
19.3842 -59.9231 4.4802
13.8121 -67.1795 41.1930
14.1657 -66.8167 3.4003
-2.2765 -49.4990 20.4646
36.6858 -46.9465 27.5050
31.5031 -53.8636 38.5884
31.5031 -53.8636 13.0567
26.3093 -60.7887 52.8075
20.8648 -67.5336 17.9187
21.1154 -67.7303 50.9264
4.6876 -50.2216 18.0534
4.4469 -50.2944 4.1197
-0.5255 -57.3262 43.7892
-5.7194 -64.2513 19.6247
-5.7194 -64.2513 42.8470
38.4282 -54.7293 16.6539
27.9984 -68.7502 31.7166
28.0406 -68.5795 17.6095
11.0646 -50.9438 39.6734
11.5934 -51.2667 53.7841
6.3996 -58.1918 1.0743
6.3996 -58.1918 50.4147
40.1595 -62.5200 19.5383
34.9671 -69.5981 30.9828
34.9415 -69.4438 21.5005
18.5185 -52.1324 55.4592
13.3247 -59.0575 56.2447
13.3247 -59.0575 1.0169
8.1659 -65.5782 40.5515
8.1309 -65.9826 1.9361
-8.3177 -48.6969 36.1245
-8.4455 -48.6592 25.7354
-13.5276 -55.5123 27.3703
25.4436 -52.9980 15.6208
20.2498 -59.9231 5.5354
14.9247 -67.2214 41.3064
15.0560 -66.8482 3.8385
15.0560 -66.8482 52.9664
-1.4044 -49.5136 20.5347
-6.5850 -56.4605 18.6878
-6.5850 -56.4605 42.7879
-11.7788 -63.3857 38.3868
32.3688 -53.8636 38.5371
32.3688 -53.8636 13.2085
27.1749 -60.7887 13.2858
27.1852 -60.8007 51.8834
21.4649 -67.7131 39.3862
22.0510 -67.7350 18.6822
22.1020 -67.8124 50.1176
5.4827 -50.3383 19.0316
6.1110 -50.3561 23.3323
5.5339 -50.4011 3.5456
0.3401 -57.3262 43.6485
-4.8537 -64.2513 19.5506
39.3607 -54.6740 32.8819
39.2939 -54.7293 17.6412
34.1000 -61.6544 13.9553
34.1000 -61.6544 37.6397
28.9062 -68.5795 34.7800
28.9062 -68.5795 17.5218
12.4473 -51.0316 39.5630
12.2455 -50.6574 40.2474
12.5102 -51.3351 54.2694
7.2652 -58.1918 0.8535
2.0714 -65.1169 42.6116
41.0356 -62.5526 26.7520
35.8313 -69.4451 30.2833
19.3842 -52.1324 55.3162
14.1903 -59.0575 56.4804
14.1903 -59.0575 1.1919
8.7521 -66.0365 31.0063
8.8443 -65.8193 40.4420
8.9965 -65.9826 1.8487
-7.4506 -48.6698 24.4030
-12.6445 -55.5949 24.4396
26.3093 -52.9980 14.8719
26.3093 -52.9980 51.9957
21.0162 -59.9472 6.8635
21.1154 -59.9231 55.6904
15.4830 -67.2830 41.3646
15.9175 -66.8298 4.3156
-5.7194 -56.4605 18.4908
33.2344 -53.8636 13.4551
33.2344 -53.8636 38.4024
28.0406 -60.7887 12.9326
22.6066 -67.7840 18.7360
22.5292 -67.7088 38.4323
6.3189 -50.3616 3.2794
6.3996 -50.4011 42.8441
1.2058 -57.3262 43.4782
-3.9881 -64.2513 19.5508
-3.9881 -64.2513 43.3845
40.1595 -54.7293 31.3678
34.9657 -61.6544 14.2882
34.9657 -61.6544 37.2238
29.7740 -68.8682 34.4500
29.7718 -68.5795 17.4841
13.7107 -50.7056 40.2116
13.3247 -51.2667 2.6900
8.1309 -58.1918 53.0349
2.8906 -65.3284 41.8309
2.9370 -65.1169 3.5149
15.0560 -59.0575 1.3710
15.0560 -59.0575 56.6677
9.4015 -66.0314 40.4790
9.8621 -65.9826 1.8599
27.1749 -52.9980 14.1957
22.0414 -60.2719 11.2827
22.0505 -59.9289 55.2945
17.5653 -66.7890 32.9925
16.3125 -67.3566 41.3884
16.7803 -66.8449 5.0488
0.3302 -49.5763 41.3537
-4.8537 -56.4605 43.5556
-4.8537 -56.4605 18.1663
34.0913 -53.8656 13.7873
34.1000 -53.8636 38.1225
23.5451 -67.6473 18.2937
23.3838 -67.6802 37.5666
23.7124 -67.7139 48.7130
6.8114 -50.2362 19.4915
7.2671 -50.3802 40.7687
7.2717 -50.2568 20.2452
7.2652 -50.4011 2.9951
2.0714 -57.3262 2.9382
2.0714 -57.3262 43.2462
-3.1224 -64.2513 19.5913
-3.1224 -64.2513 43.5634
35.8313 -61.6544 36.6699
35.8325 -61.6501 14.6879
30.6459 -68.7613 34.4613
30.6375 -68.5795 17.5356
13.5283 -51.0756 39.4943
14.5679 -50.7012 40.2221
14.1903 -51.2667 2.9174
14.1903 -51.2667 54.7727
8.9965 -58.1918 53.8879
8.9965 -58.1918 0.6074
4.2327 -65.1469 37.6502
3.8027 -65.1169 3.0260
21.4520 -52.4080 12.3991
21.1154 -52.1324 54.8255
15.9216 -59.0575 1.7211
15.9216 -59.0575 56.7622
10.7278 -65.9826 1.9275
33.4425 -46.2736 28.6912
33.2344 -46.0729 31.6668
23.2446 -59.7360 13.7844
22.8467 -59.9231 54.9427
17.3708 -66.9438 39.9757
17.6529 -66.8482 52.9967
17.5963 -66.8187 5.9638
1.2058 -49.5354 14.0066
1.2058 -49.5354 41.1707
1.2058 -49.5354 8.2324
-3.9881 -56.4605 43.7948
-3.9979 -56.4668 17.9577
-9.0856 -63.3345 41.2623
34.9657 -53.8636 14.2305
34.9657 -53.8636 37.6269
29.9043 -60.4622 39.2077
29.7718 -60.7887 40.3075
29.8677 -60.7921 47.4356
29.7718 -60.7887 12.6376
24.1612 -67.6570 36.6835
24.9458 -67.8311 33.2305
24.5780 -67.7139 17.7001
8.1714 -50.3764 40.3084
8.1309 -50.4011 2.8401
2.9370 -57.3262 43.0452
-2.1006 -64.2367 16.2360
-2.2568 -64.2513 43.6776
36.6969 -61.6544 15.1780
31.5136 -68.5863 34.4486
31.5031 -68.5795 17.6933
14.6181 -51.1443 39.1481
15.3707 -50.6737 40.2251
15.0560 -51.2667 54.9634
9.8621 -58.1918 0.6051
9.8621 -58.1918 54.5794
5.3957 -65.6004 31.8795
4.7827 -64.9959 2.5097
21.9003 -52.4943 13.2054
21.9811 -52.1324 54.4380
16.7873 -59.0575 2.2284
16.7873 -59.0575 56.7678
12.4974 -66.0767 33.0181
11.1087 -66.0717 40.6639
11.5934 -65.9826 2.0564
-10.0476 -55.5949 40.0987
34.3392 -46.3414 27.6092
29.0170 -52.8522 13.6515
28.9062 -52.9980 38.0408
23.7124 -59.9231 54.5640
18.2318 -66.8502 38.3777
18.7672 -66.9275 33.0983
18.4544 -66.8362 7.6125
18.5392 -66.9615 52.7245
2.1874 -49.2430 14.8835
2.3183 -49.3391 32.5914
2.0714 -49.5354 40.9027
-3.1224 -56.4605 43.8859
-3.1224 -56.4605 17.8347
-8.3163 -63.3857 41.7842
-8.3163 -63.3857 20.2194
35.8313 -53.8636 14.7418
30.6375 -60.7887 44.3880
30.6375 -60.7887 12.6639
30.6375 -60.7887 38.1502
24.8365 -67.6615 35.8428
25.0620 -67.7298 34.1765
25.4341 -67.7178 17.3387
9.0689 -50.3396 40.2495
8.9965 -50.4011 2.7879
8.9965 -50.4011 51.1613
3.8027 -57.3262 2.0251
3.8027 -57.3262 42.7575
-1.3673 -64.7515 17.6719
-1.3912 -64.2513 19.5778
-1.3912 -64.2513 7.1065
-1.3912 -64.2513 43.7140
37.5626 -61.6544 15.8173
15.6966 -51.0891 38.9946
16.0179 -50.6843 40.1505
15.9383 -51.3458 55.1413
15.9216 -51.2667 3.8650
10.7507 -58.1898 55.1940
5.9731 -65.4895 31.7783
22.7032 -52.4857 14.3805
22.8467 -52.1324 53.9929
17.6529 -59.0575 2.9760
17.6529 -59.0575 56.6986
12.0154 -66.0344 40.6597
12.4260 -66.0168 52.9051
-3.9805 -48.7816 40.3318
-9.1819 -55.5949 19.9406
-9.1819 -55.5949 40.8499
35.1166 -46.2541 28.1079
34.4580 -46.2520 30.4673
29.7718 -52.9980 13.4020
24.5780 -59.9231 14.2718
24.5780 -59.9231 54.1460
19.6793 -66.8403 14.8382
19.5166 -67.0179 33.2326
19.3955 -66.8555 52.6422
3.1024 -49.5506 35.0998
3.0178 -49.4841 15.6715
-2.2568 -56.4605 7.9563
-2.2597 -56.4824 15.2499
-2.2568 -56.4605 43.8712
-2.2568 -56.4605 17.5862
31.5031 -60.7887 38.0835
26.1789 -67.1760 38.2434
10.1711 -50.3862 40.2865
10.3444 -50.4476 30.9856
9.8621 -50.4011 2.8242
4.6683 -57.3262 1.6809
4.6683 -57.3262 42.8030
-0.5255 -64.2513 43.6498
38.4282 -61.6544 16.5697
33.2344 -68.5795 18.4208
33.2544 -68.6659 33.6746
16.6154 -50.5551 40.2072
16.7962 -51.2901 55.1543
11.5934 -58.1918 0.7593
11.5934 -58.1918 55.6401
6.5211 -65.4510 31.9369
6.3996 -65.1169 1.9633
23.6090 -52.3017 15.3727
18.5185 -59.0575 3.7500
18.5185 -59.0575 56.5622
13.8254 -65.9483 38.2846
13.4018 -65.8423 37.8360
13.9806 -66.2399 33.1334
12.7362 -66.4186 40.7062
13.3334 -65.8857 2.4283
-3.1191 -48.6314 21.3887
-8.3163 -55.5949 19.3720
30.6375 -52.9980 13.3190
25.5646 -59.9307 53.5654
25.4436 -59.9231 14.0232
19.9302 -66.9123 35.0645
20.1366 -67.0797 33.5343
20.2169 -67.1886 16.5926
3.6575 -49.4620 15.8636
3.9071 -49.6075 39.2486
3.8027 -49.5354 40.1002
3.8027 -49.5354 5.3002
-1.4818 -56.5262 6.6303
-1.3912 -56.4605 43.7823
-6.5850 -63.3857 19.5403
-6.5850 -63.3857 42.7666
32.3688 -60.7887 13.0322
32.3688 -60.7887 38.0452
27.1749 -67.7139 35.4300
27.1749 -67.7139 16.7607
10.7278 -50.4011 2.9025
10.7299 -50.4041 52.6184
5.5339 -57.3262 48.7649
5.2054 -57.2884 1.5070
0.3401 -64.2513 43.5079
39.2939 -61.6544 17.5253
34.0912 -68.4713 18.9838
34.1000 -68.5795 33.3071
16.9091 -51.0076 38.9096
17.9012 -50.5405 40.0364
17.6585 -51.2929 55.1394
12.4591 -58.1918 0.8655
12.5303 -58.1929 56.0387
7.0859 -64.9822 41.2423
7.2652 -65.1169 1.7000
-9.1819 -47.8042 28.7619
-9.1609 -47.8690 33.5321
24.3195 -52.2010 15.9018
24.5780 -52.1324 52.9115
19.3842 -59.0575 56.3647
19.3842 -59.0575 4.5163
14.9513 -66.2679 38.7761
14.0641 -66.0195 35.0408
13.6675 -66.5350 40.5950
14.1903 -65.9826 2.8041
-2.2422 -48.6000 21.3910
-7.3236 -55.5824 42.2084
-7.4506 -55.5949 18.9637
31.5031 -52.9980 13.3560
31.5031 -52.9980 38.1570
26.3093 -59.9231 53.0400
20.9636 -66.8120 16.7209
21.1154 -66.8482 52.0603
4.4599 -49.4309 15.9711
4.6683 -49.5354 4.6974
-0.5255 -56.4605 43.6582
-5.7194 -63.3857 19.3565
38.4282 -53.8636 34.0306
33.2344 -60.7887 13.3458
33.2344 -60.7887 37.9863
28.0406 -67.7139 35.5953
28.0406 -67.7139 16.5745
11.5934 -50.4011 53.1853
11.5934 -50.4011 2.9939
6.3996 -57.3262 1.1846
6.3996 -57.3262 50.2937
1.2058 -64.2513 43.3190
1.2058 -64.2513 4.3441
40.1360 -61.6545 18.9127
17.7914 -50.9614 38.8665
18.9563 -50.5603 39.9102
18.5185 -51.2667 7.3150
18.5185 -51.2667 55.0436
13.3247 -58.1918 56.3042
13.3115 -57.3548 0.9995
8.4513 -64.9893 35.8057
8.1630 -65.0272 40.5894
-8.4468 -47.7876 27.4111
25.4436 -52.1324 52.2481
20.2708 -59.0729 56.1077
20.2498 -59.0575 5.4992
14.8436 -66.2936 33.5513
14.6394 -66.1406 34.3474
15.0207 -66.0389 53.7660
-1.3912 -48.6698 40.8515
-1.4022 -48.6263 21.4245
-6.5850 -55.5949 18.6741
-6.5850 -55.5949 42.6652
-11.8732 -62.7144 23.1367
32.3688 -52.9980 13.4894
32.3688 -52.9980 38.2278
27.1749 -59.9231 52.2598
27.1749 -59.9231 13.2016
22.2050 -67.2051 17.9746
5.2955 -49.4096 16.0400
0.3401 -56.4605 43.5187
-4.8537 -63.3857 19.2696
-4.8537 -63.3857 43.4237
34.0883 -60.7889 13.6764
28.9062 -67.7139 35.6702
28.9062 -67.7139 16.5485
11.9431 -50.3633 40.4304
12.5795 -50.6306 33.4143
12.5854 -50.2810 3.2024
7.2652 -57.3262 0.9717
2.0714 -64.2513 3.6662
2.0714 -64.2513 42.9829
41.0260 -61.7899 28.3984
40.9994 -61.6275 21.5152
35.7378 -68.5164 20.7386
35.8354 -68.5805 31.8481
18.9612 -50.9897 38.4230
19.8243 -50.5679 39.8648
19.3842 -51.2667 54.8981
14.1903 -58.1918 56.5348
14.1903 -58.1918 1.1767
8.6798 -65.1789 40.3326
8.9965 -65.1169 50.7104
-6.8780 -48.0449 36.8129
-12.6253 -54.8277 36.1298
26.3093 -52.1324 51.4478
21.0708 -59.0515 6.7811
21.1154 -59.0575 55.8136
15.9216 -65.9826 3.6559
15.9216 -65.9826 53.9363
-0.5255 -48.6698 40.8725
-5.7194 -55.5949 18.4760
-10.9132 -62.5200 21.9150
33.2344 -52.9980 38.1765
28.1038 -59.9313 51.1519
22.8804 -66.9614 17.6502
22.8467 -66.8482 51.0851
6.3872 -49.4951 43.9774
6.3996 -49.5354 3.8598
1.2058 -56.4605 43.3322
1.2058 -56.4605 3.6390
-3.9881 -63.3857 19.2777
-3.9881 -63.3857 43.6504
40.1595 -53.8636 19.4513
34.9657 -60.7887 14.0614
34.9657 -60.7887 37.3654
29.7718 -67.7139 35.6252
29.7718 -67.7139 16.6199
12.4479 -50.4181 32.1743
13.3247 -50.4011 53.9871
8.1309 -57.3262 53.1225
8.1309 -57.3262 0.8106
2.9370 -64.2513 3.0990
2.9370 -64.2513 42.4547
36.6676 -68.5461 22.3263
20.1337 -50.9915 38.2693
20.6619 -50.5803 39.8027
20.2498 -51.2667 54.6894
15.0560 -58.1918 1.3749
15.0560 -58.1918 56.7181
9.9685 -64.9021 37.1795
9.6074 -65.4401 40.2349
9.8472 -65.1300 51.8164
-6.5890 -47.8014 24.9219
27.1749 -52.1324 50.4849
21.9811 -59.0575 55.4514
16.7819 -65.9553 4.1953
16.7873 -65.9826 53.9486
0.3723 -48.5715 23.6698
0.1869 -48.5083 27.9252
0.3401 -48.6698 40.7903
-4.8537 -55.5949 43.4906
-4.8537 -55.5949 18.2094
-10.0476 -62.5200 21.0971
34.1000 -52.9980 14.0364
28.9062 -59.9231 12.5323
23.4552 -66.9291 17.4742
23.9943 -66.8636 50.0426
7.0020 -49.5530 16.6749
7.2652 -49.5354 47.9821
7.2652 -49.5354 3.6002
7.2652 -49.5354 41.5716
1.9329 -56.4484 3.1561
-3.1224 -63.3857 19.3050
-3.1224 -63.3857 43.8240
30.6375 -67.7139 35.5184
30.6375 -67.7139 16.7290
13.9354 -50.3721 31.9348
14.2045 -50.4512 54.2782
14.1903 -50.4011 3.4851
8.9965 -57.3262 53.9562
3.4514 -63.8666 42.0740
3.8027 -64.2513 2.6413
21.5797 -51.4928 13.9146
21.5202 -50.6031 39.7592
15.9216 -58.1918 1.7583
15.9216 -58.1918 56.8170
10.6788 -64.9436 37.5745
10.9661 -65.4935 40.3928
-5.7197 -47.8769 37.8965
-10.8807 -54.7506 38.7629
-10.9132 -54.7293 21.9927
27.9215 -52.1343 39.8710
28.0437 -52.0379 14.5282
28.0406 -52.1324 37.6367
22.9484 -58.8631 13.3193
17.6820 -65.9745 53.8721
17.6493 -65.9754 5.0247
0.8352 -48.5674 22.9542
0.9516 -48.5094 30.7403
1.2058 -48.6698 21.5973
-3.9881 -55.5949 43.7254
34.9657 -52.9980 37.3562
29.9169 -59.8681 39.4018
29.7694 -59.8889 39.6455
29.7718 -59.9231 12.4293
24.6555 -66.8781 49.1828
24.5780 -66.8482 17.0269
7.8185 -49.5372 16.7208
8.4491 -49.4612 40.6792
8.1309 -49.5354 3.4521
2.9370 -56.4605 42.8698
-2.2568 -63.3857 8.0194
-2.2568 -63.3857 19.2611
-7.6102 -70.2133 30.7150
-7.2572 -70.2527 34.9877
36.6969 -60.7887 15.0371
36.5587 -61.4412 36.1718
31.5003 -67.7566 35.3190
31.5031 -67.7139 16.8516
14.6705 -50.3876 40.4202
15.0560 -50.4011 3.8796
9.8621 -57.3262 54.6259
5.4257 -64.6375 36.1980
4.6683 -64.2513 2.2452
21.4631 -51.0186 38.1565
22.3876 -50.6319 39.7348
22.1973 -51.8988 14.2179
21.9811 -51.2667 54.0041
16.7873 -58.1918 56.8204
11.6006 -64.9352 38.4134
11.6085 -65.5809 40.5501
11.5934 -65.1169 53.2404
11.6091 -65.0391 1.5906
-4.8152 -47.8531 38.7337
-10.0476 -54.7293 20.9577
28.9062 -52.1324 14.1883
28.8193 -52.1332 42.2356
28.9062 -52.1324 37.4243
23.7124 -59.0575 14.2296
23.7124 -59.0575 54.6492
18.5321 -65.9961 53.7191
18.5185 -65.9826 6.2174
2.0714 -48.6698 40.3311
2.0660 -48.6146 10.1972
2.0714 -48.6698 13.4740
-3.1224 -55.5949 43.7955
-3.1224 -55.5949 17.8715
-8.3163 -62.5200 42.0324
-8.3163 -62.5200 19.9928
35.8313 -52.9980 36.6491
35.8313 -52.9980 15.0540
30.6375 -59.9231 45.2922
30.6375 -59.9231 38.4230
30.6375 -59.9231 12.4512
25.4436 -66.8482 16.6593
8.6677 -49.5240 16.7145
9.1926 -49.5893 40.7933
3.8027 -56.4605 2.1552
3.8027 -56.4605 42.6481
-1.3944 -63.4271 43.9750
-6.8605 -70.1795 30.0670
-6.5850 -70.3108 36.4047
37.5626 -60.7887 15.6316
16.0333 -50.2311 40.4726
15.9216 -50.4011 4.5395
10.7278 -57.3262 0.7371
10.7484 -57.3248 55.1914
5.9113 -64.5371 36.1925
5.5339 -64.2513 1.9103
22.6816 -51.9677 14.6864
22.3551 -51.0439 38.0821
23.2545 -50.6671 39.7348
17.6529 -58.1918 56.7507
12.0937 -65.3867 40.5758
12.0475 -65.1799 39.9526
12.4591 -65.1169 1.8152
-3.9881 -47.8042 39.2758
-4.0131 -47.6724 23.1886
-9.1819 -54.7293 20.1494
-14.3697 -61.6490 32.6978
-14.3718 -61.6184 30.1721
29.7718 -52.1324 13.9227
29.7718 -52.1324 37.4998
24.5780 -59.0575 14.0579
19.3957 -65.9902 53.5313
2.7372 -48.5764 37.2930
2.9370 -48.6698 15.1953
2.9370 -48.6698 39.7873
2.9370 -48.6698 7.4229
-2.2568 -55.5949 43.7523
-2.2568 -55.5949 17.6757
-2.2534 -55.5736 8.4281
-7.4506 -62.5200 19.6357
-7.4506 -62.5200 42.5394
36.3979 -53.0575 15.4514
37.0940 -52.9975 35.3192
31.5031 -59.9231 38.2576
31.5031 -59.9231 12.5866
9.5318 -49.5235 16.6670
10.0952 -49.6369 40.8317
4.6683 -56.4605 1.8141
4.6683 -56.4605 42.7704
-0.5255 -63.3857 5.5868
-5.4463 -70.1368 37.2197
38.4284 -60.7887 16.2668
33.2344 -67.7139 34.8034
33.2344 -67.7139 17.3484
17.4865 -50.2281 40.4038
17.0658 -50.5512 32.7954
16.7873 -50.4011 54.6021
11.5934 -57.3262 0.7858
11.5934 -57.3262 55.6218
6.8337 -64.4247 36.6278
6.4359 -64.1779 1.5679
23.6616 -51.4629 15.9594
23.4549 -51.0582 37.6378
24.1138 -50.7309 39.7604
23.7124 -51.2667 53.0007
18.5185 -58.1918 56.6175
18.5185 -58.1918 3.9174
13.3247 -65.1169 54.0441
13.3247 -65.1169 2.0468
-3.1224 -47.8042 22.6801
-8.2458 -54.7909 41.3262
-8.3163 -54.7293 19.5107
-13.4377 -61.6512 36.1938
30.6375 -52.1324 37.6678
25.5824 -59.1319 53.6361
25.4436 -59.0575 13.8563
3.5023 -48.7554 14.9386
3.8027 -48.6698 6.4161
-1.3986 -55.5874 6.7290
-1.3912 -55.5949 43.6451
-6.5850 -62.5200 19.3474
-6.5472 -62.5048 43.0015
37.7808 -52.9960 34.4563
37.3174 -53.0124 16.2856
32.3688 -59.9231 38.1867
32.3382 -59.8987 12.8075
27.1749 -66.8482 15.9904
10.7182 -49.5388 16.5433
10.9657 -49.6477 40.8524
10.7278 -49.5354 3.5817
5.5084 -56.4708 1.5432
0.3401 -63.3857 43.8058
0.3401 -63.3857 4.7145
-4.6802 -70.2267 25.8828
-4.8537 -70.3108 37.2954
39.3368 -61.2762 32.8570
39.2780 -60.8029 17.1373
18.0302 -50.1505 40.4009
17.2235 -50.3326 31.4885
17.6529 -50.4011 54.5839
12.4591 -57.3262 0.8713
12.5718 -57.3284 56.0462
7.4203 -64.4630 36.7596
7.2075 -64.4055 41.1432
7.2652 -64.2513 1.3572
25.0938 -50.9003 17.2566
24.1945 -51.0689 37.5462
24.9657 -50.8411 39.7774
19.3842 -58.1918 56.4240
19.3842 -58.1918 4.5967
-2.1478 -47.9507 22.6678
-2.1512 -47.5862 25.4077
-1.7765 -47.7782 24.8722
-7.1426 -54.7094 42.1018
-7.4506 -54.7293 19.0409
-12.6445 -61.6544 23.7601
-12.5618 -61.6590 37.8364
31.4934 -52.1133 37.7949
26.3093 -59.0575 53.1480
26.3093 -59.0575 13.5960
21.1455 -65.9335 15.5535
21.1517 -65.9788 52.9701
4.2329 -48.8014 14.8197
4.6409 -48.5866 5.8140
-0.5255 -55.5949 5.4923
-0.3940 -55.7343 43.5045
-5.7194 -62.5200 19.1552
-5.7194 -62.5200 43.3233
38.4282 -52.9980 17.4622
33.2344 -59.9231 13.1365
33.2344 -59.9231 38.0789
28.0406 -66.8482 15.7661
28.0406 -66.8482 36.3027
11.5673 -49.4793 15.9978
11.6373 -49.6090 52.5319
11.5934 -49.5354 3.6815
6.3996 -56.4605 1.3235
1.0919 -63.4429 4.0644
1.2058 -63.3857 43.6186
40.1595 -60.7887 18.5475
35.0145 -67.8197 33.6639
18.6757 -50.1948 40.2966
18.0575 -50.2820 31.5154
18.5185 -50.4011 7.9216
13.3247 -57.3262 56.3080
7.9011 -64.2198 40.0418
7.9002 -64.1766 39.3282
8.5067 -64.5248 37.3000
7.9818 -64.3650 40.9532
8.1309 -64.2513 1.1921
8.1142 -64.3005 50.0773
-8.3115 -46.9544 32.7013
25.0939 -51.1136 37.4258
25.7976 -51.0288 39.7624
25.4436 -51.2667 16.9223
20.2801 -58.2020 56.1715
20.2498 -58.1918 5.4609
15.0384 -65.1776 54.4833
15.0560 -65.1169 2.6564
-1.6339 -47.7059 26.2516
-1.6733 -47.8278 23.8760
-1.2787 -47.9466 22.6708
-6.5850 -54.7293 18.7373
-6.5850 -54.7293 42.4710
-11.7249 -61.5792 22.3705
32.3688 -52.1324 13.8535
32.3676 -52.1287 37.8805
27.1749 -59.0575 13.1416
21.8600 -66.4362 16.7462
5.0615 -48.8353 14.7518
0.3401 -55.5949 4.5547
-4.8537 -62.5200 19.0389
-4.8537 -62.5200 43.6135
28.9062 -66.8482 15.7787
28.9062 -66.8482 36.3470
12.8275 -49.6790 22.8290
12.3161 -49.6559 40.8590
12.4591 -49.5354 52.9500
12.4591 -49.5354 3.7907
7.2652 -56.4605 1.1263
2.0714 -63.3857 43.2913
40.9646 -60.7859 20.6036
19.7763 -50.3472 14.1569
19.7148 -50.1376 12.3671
18.9668 -50.2252 31.7155
14.1903 -57.3262 56.5403
14.1903 -57.3262 1.1732
8.5280 -64.3747 39.2243
9.3911 -64.6911 37.4126
8.1082 -64.3834 40.7769
8.1089 -64.3291 40.9309
8.9965 -64.2513 1.1178
-7.3877 -46.9768 34.3794
26.4989 -51.2918 39.6935
25.9726 -51.1997 37.2555
26.3093 -51.2667 15.9991
21.1084 -58.1921 6.7585
21.1154 -58.1918 55.8848
15.9019 -65.1860 54.5956
15.9216 -65.1169 3.1100
-1.1481 -47.9571 23.6044
-0.5255 -47.8042 22.5650
-5.7194 -54.7293 18.5085
-5.6801 -54.7557 42.9909
33.2344 -52.1324 14.0591
33.2305 -52.1441 37.8332
28.0406 -59.0575 51.4939
28.0315 -59.0440 12.6882
22.6923 -66.2418 16.7591
22.8467 -65.9826 52.1117
6.1014 -48.7177 14.2606
6.3996 -48.6698 4.6227
1.2058 -55.5949 43.1966
1.2058 -55.5949 3.8366
-3.9881 -62.5200 19.0249
-3.9881 -62.5200 43.8357
40.1595 -52.9980 20.1883
34.9657 -59.9231 13.8913
34.9657 -59.9231 37.4597
29.7523 -66.8970 36.2560
13.1972 -49.4194 15.2416
13.2462 -49.6377 24.4040
13.3374 -49.5819 53.3916
13.3408 -49.4364 4.0180
8.1320 -56.4507 53.1277
8.1309 -56.4605 0.9799
2.9370 -63.3857 2.7840
2.9370 -63.3857 42.7496
-2.5492 -70.3305 28.2849
36.6478 -67.6978 20.6296
20.7832 -50.3669 15.6368
19.9277 -50.2070 40.1985
20.1184 -50.3576 33.0496
20.2498 -50.4011 54.1450
15.0560 -57.3262 1.4014
15.0560 -57.3262 56.7173
9.4093 -64.5796 39.1872
10.2034 -64.7595 37.7273
9.8721 -64.2429 52.6163
9.8621 -64.2513 1.1064
-11.6855 -53.8810 37.0120
27.2474 -51.5191 40.0421
27.1598 -51.5620 50.0161
27.1303 -51.2668 15.4001
27.1749 -51.2667 36.6538
21.9811 -58.1918 55.5301
16.7873 -65.1169 54.6662
16.7873 -65.1169 3.6816
0.3020 -48.0323 30.3780
0.3401 -47.8042 40.0522
-4.8537 -54.7293 18.2764
-4.8537 -54.7293 43.3622
-10.0476 -61.6544 20.8229
34.1000 -52.1324 37.5011
28.9062 -59.0575 12.3907
29.0800 -59.0594 50.0584
23.6415 -66.2093 16.7314
23.7124 -65.9826 51.4661
7.7774 -48.6736 42.8552
6.8128 -48.7262 14.1713
7.2652 -48.6698 4.3287
2.0613 -55.5851 3.2630
2.0714 -55.5949 42.9954
-3.1224 -62.5200 18.9913
-3.1224 -62.5200 14.1628
41.0260 -53.0070 24.0732
30.7631 -66.8500 36.1772
13.9187 -49.4247 15.0577
8.9965 -56.4605 53.9298
8.9965 -56.4605 0.9216
3.5184 -63.3300 42.3157
-1.5484 -70.2756 26.3313
-1.3905 -70.3184 37.9075
21.5546 -50.5311 15.7804
21.2345 -50.2091 40.1433
21.1154 -50.4011 53.8454
15.9216 -57.3262 1.8131
15.9216 -57.3262 56.8123
10.3187 -64.6785 39.1406
11.0570 -64.7423 38.3499
10.7877 -64.1987 53.3922
10.7278 -64.2513 1.1668
27.8047 -51.7670 40.4283
28.0406 -51.2667 36.7076
28.0406 -51.2667 15.0560
22.8553 -58.3283 13.2787
17.6529 -65.1169 54.6078
17.6529 -65.1169 4.3259
0.9159 -47.9083 32.8074
1.2058 -47.8042 39.8937
-3.9881 -54.7293 43.6062
-9.1819 -61.6544 20.2340
34.9657 -52.1324 14.8901
29.7718 -59.0575 12.2742
29.8726 -59.0692 48.2857
8.4578 -48.5779 42.7197
8.3238 -48.7464 14.0876
2.9370 -55.5949 2.7512
2.9370 -55.5949 42.7830
-2.2568 -62.5200 18.6638
-2.2568 -62.5200 44.1104
-7.4506 -69.4451 37.3068
-7.3948 -69.3882 25.8837
36.9229 -59.7590 36.1872
36.6969 -59.9231 14.9456
14.9839 -49.3331 14.3901
16.1815 -49.3950 22.5478
14.9919 -49.5926 26.1564
15.0560 -49.5354 53.7778
15.0560 -49.5354 4.6059
10.0729 -56.2693 0.9309
9.8621 -56.4605 54.5828
5.2416 -63.7269 40.3293
4.6683 -63.3857 1.9215
-0.7998 -70.2396 25.5507
22.0911 -50.2314 40.1211
21.6404 -50.4966 34.8085
22.3587 -50.7503 15.9265
16.7873 -57.3262 56.8172
11.5494 -65.1765 40.3307
11.7341 -65.0184 40.1408
11.1978 -64.7466 39.1363
11.4480 -64.7436 38.5999
11.5934 -64.2513 53.8354
11.5934 -64.2513 1.2786
-4.8537 -46.9385 25.1822
-10.0476 -53.8636 39.1548
-10.0474 -53.8621 21.4552
28.9062 -51.2667 36.8638
23.7124 -58.1918 14.0468
23.7124 -58.1918 54.6965
18.5290 -65.1534 54.4507
18.5185 -65.1169 5.2477
1.9213 -47.8261 36.4570
1.8080 -48.0229 35.4337
-3.1224 -54.7293 43.6761
-3.0943 -54.7083 17.9319
-8.3147 -61.6310 19.8057
-8.2963 -61.6515 42.2036
8.9603 -55.5746 53.7872
29.5706 -54.7293 40.5039
-12.9550 -53.8636 27.5193
23.1658 -52.8457 14.7930
35.0155 -52.9448 14.5392
26.7133 -52.9980 14.5347
26.2798 -66.8346 46.4079
14.9880 -66.2395 34.0753
4.3598 -65.9928 33.8652
37.1992 -65.9826 33.5787
-7.7778 -65.1169 20.5942
-1.7217 -64.2513 7.6096
30.1324 -54.7293 44.8320
5.3729 -54.7293 44.8320
39.6978 -53.8636 31.8475
-13.5068 -53.8933 31.8475
18.0382 -52.1324 5.8783
0.6779 -52.1324 5.8783
23.1103 -66.8482 50.8915
11.0539 -66.8482 50.8915
27.0012 -66.0535 37.8138
3.8698 -66.0720 37.9003
-11.7646 -65.0862 24.9598
20.7190 -63.9689 11.5358
-2.8719 -64.2513 11.9378
29.1255 -54.7293 49.1602
5.9604 -54.7293 49.1602
-12.1884 -53.8636 36.1757
20.5379 -52.1324 10.2065
-1.6215 -52.1324 10.2065
28.0383 -65.8316 42.2440
7.1733 -65.9917 42.2329
-4.8686 -66.0261 42.2903
39.8560 -65.1169 29.2505
-13.1399 -65.1169 29.2505
36.5546 -64.0469 16.3067
2.0921 -63.3787 3.2933
29.3192 -53.8636 40.5039
-8.5957 -53.8958 40.6301
40.7986 -52.9980 27.5193
23.1729 -52.2060 15.0478
34.1237 -52.1059 14.4219
-0.8750 -52.1324 14.5347
27.1668 -65.9461 46.5265
7.6224 -65.9826 46.5633
7.1802 -65.1406 33.8170
4.8175 -65.5279 33.7931
-13.0549 -65.1169 33.5787
39.7409 -64.2513 20.5942
20.5352 -63.3857 7.6096
-2.0527 -63.3857 7.6096
5.4284 -53.8636 44.8320
39.3265 -52.9367 32.0021
-13.1709 -52.9980 31.8475
38.9359 -52.1324 18.8629
1.2189 -51.2868 5.9142
24.3997 -65.9587 50.8682
11.1145 -64.9137 38.0005
27.4059 -65.1472 38.0910
4.0095 -65.5913 37.9785
-11.3265 -65.1169 37.9069
40.5886 -64.2513 24.9224
-12.1903 -64.2513 24.9224
21.0388 -63.3298 11.4454
28.8634 -53.8978 49.1373
5.9752 -53.8636 49.1602
36.3321 -52.9980 36.1757
40.5849 -52.1324 23.1911
-1.1152 -51.2667 10.2065
6.8107 -65.1169 42.2351
28.5713 -65.1169 42.2351
2.7117 -65.1169 42.2351
36.8439 -63.4543 16.1393
-2.2703 -63.3910 16.2527
17.6167 -62.4924 3.3203
28.7840 -52.9980 40.5039
40.4853 -52.1324 27.5193
22.8438 -51.7426 15.0494
33.2286 -51.2573 14.5234
-0.3017 -51.2667 14.5347
28.0209 -64.9790 46.5573
7.2580 -65.1559 46.6404
38.1178 -64.2513 33.5787
-9.1129 -63.3490 20.6889
20.8105 -62.5200 7.6096
29.4803 -52.9980 44.8320
39.0977 -52.1324 31.8475
1.4004 -51.2274 18.7372
25.3088 -65.0891 50.8719
10.5051 -64.6922 38.1440
27.6503 -64.6230 38.1043
4.6210 -64.7347 37.8023
40.8995 -63.3857 24.9224
-12.6403 -63.3378 24.9793
21.5124 -62.4828 11.5433
-3.3059 -62.5200 11.9378
28.4936 -52.9980 49.1602
6.0772 -52.9980 49.1602
35.8311 -52.1326 36.1756
-11.0473 -51.9937 36.2318
40.1595 -51.2751 23.2085
-9.5070 -51.2667 23.1911
19.5966 -50.4011 10.2065
3.6918 -64.0013 41.6675
29.1513 -64.2513 42.2351
6.5604 -64.2513 42.2351
-7.0402 -64.2513 42.2351
40.4674 -63.3857 29.2505
-13.8341 -63.3857 29.2505
37.6200 -62.5407 16.2624
-2.3241 -62.5067 16.2654
17.6826 -61.7329 3.2083
1.2646 -61.6425 3.4212
24.4957 -53.0242 53.4122
28.2230 -52.1324 40.5039
-11.5544 -51.2667 27.5193
19.9176 -50.3236 14.7654
0.4913 -50.4011 14.5347
28.5279 -64.2513 46.5633
6.8305 -64.2513 46.5633
38.4193 -63.3763 33.5694
-13.8303 -63.3857 33.5787
40.5018 -62.5200 20.5942
29.1377 -52.1324 44.8320
5.5105 -52.1094 44.7633
38.6935 -51.2667 31.8475
-12.3380 -51.2667 31.8475
37.6124 -50.3947 18.8679
16.3191 -49.5354 5.8783
2.9794 -49.5919 5.9237
25.9767 -64.2513 50.8915
8.5398 -64.2513 50.8915
27.8820 -64.0220 37.8734
-12.0750 -63.3857 37.9069
41.1306 -62.5200 24.9224
-12.9149 -62.5200 24.9224
22.0413 -61.5394 12.1036
-3.4583 -61.6544 11.9378
35.2038 -51.2667 36.1757
-10.5743 -51.2667 36.1757
1.9712 -49.7815 23.4918
39.5946 -50.4011 23.1911
-8.7289 -50.4011 23.1911
19.0628 -49.5354 10.2065
0.3336 -49.6723 10.2199
15.9214 -64.2570 55.2227
3.8173 -63.4408 41.9447
6.1072 -63.2947 42.5650
29.7314 -63.2825 42.2491
-7.5603 -63.4319 42.2502
40.6826 -62.5200 29.2505
-14.0683 -62.5200 29.2505
38.1085 -61.6544 16.2660
-2.3085 -61.6544 16.2660
17.9484 -60.7887 3.2814
1.2326 -60.7876 3.3461
23.7093 -52.1337 53.4842
10.2322 -52.1324 53.4884
10.4703 -50.6926 40.0332
17.1003 -50.6835 39.9791
28.0196 -51.6676 41.0164
2.7278 -50.1473 28.0904
39.6594 -50.4011 27.5193
-11.0292 -50.4011 27.5193
14.6426 -49.4400 14.8627
1.2062 -49.7552 14.5323
29.0740 -63.3857 46.5633
-14.0699 -62.5200 33.5787
40.7542 -61.6544 20.5942
-9.7479 -61.6544 20.5942
21.1922 -60.8123 7.5161
-2.4303 -60.7887 7.6096
28.6984 -51.2667 44.8320
5.5889 -51.2667 44.8320
3.4511 -50.1455 32.3905
38.3278 -50.4777 31.7567
-11.7833 -50.3984 31.8652
20.0399 -49.6370 18.7101
24.2179 -49.5153 18.9332
36.9052 -49.5354 18.8629
25.5951 -49.5354 18.8629
15.5230 -48.6698 5.8783
26.5553 -63.3857 50.8915
8.1238 -63.4134 50.9508
28.5065 -63.1200 38.2207
-12.3300 -62.5200 37.9069
41.3025 -61.6544 24.9224
-13.1531 -61.6544 24.9224
22.1618 -60.7510 11.9580
-3.5419 -60.7887 11.9378
27.4871 -51.2667 49.1602
6.7053 -51.2667 49.1602
3.7700 -49.9218 36.5139
1.4406 -49.3221 23.3861
38.9348 -49.5354 23.1911
-7.7314 -49.5354 23.1911
18.3384 -48.6698 10.2065
14.1652 -63.5342 55.2506
30.1263 -62.5200 42.2351
5.6630 -62.5200 42.2351
4.1621 -62.5200 42.2351
-8.0016 -62.5200 42.2351
40.8472 -61.6544 29.2505
-14.2391 -61.6544 29.2505
-2.2690 -60.7887 16.2660
18.0180 -59.9231 3.2814
26.7942 -50.6538 40.9115
16.9158 -50.1855 40.4700
4.1689 -50.4226 40.4140
1.5548 -49.4811 27.7968
39.0995 -49.5354 27.5193
-10.4186 -49.5354 27.5193
5.7782 -48.8449 14.6799
2.5772 -48.6698 14.5347
29.5458 -62.5200 46.5633
6.0072 -62.5200 46.5633
-14.2442 -61.6544 33.5787
21.3841 -59.9231 7.6096
-2.4485 -59.9231 7.6096
28.1144 -50.3531 44.8296
5.8489 -50.4011 44.8320
1.9258 -49.0350 32.3021
27.5447 -48.8199 18.4885
36.0397 -48.6285 18.7580
14.1907 -47.7956 5.8302
6.0056 -47.8042 5.8783
27.1018 -62.5047 50.8240
7.6799 -62.5200 50.8915
41.4535 -60.7887 24.9224
-13.3460 -60.7887 24.9224
22.2180 -59.8233 11.7608
-3.4976 -59.9231 11.9378
27.1503 -50.8068 49.1546
7.2585 -50.3963 49.1563
3.2787 -49.4251 36.5994
-9.1802 -49.5390 36.1726
0.6030 -48.6366 23.4139
19.4774 -48.8928 23.0081
17.4141 -47.8042 10.2065
30.4458 -61.6544 42.2351
-14.3521 -60.7882 29.2510
38.6077 -59.8956 16.2823
-2.2574 -59.9186 16.2625
17.9673 -59.0575 3.2814
1.2280 -59.0634 3.3514
21.9872 -50.4163 53.4591
15.8891 -49.4343 40.9803
7.6198 -49.5354 40.5039
0.4272 -48.7568 27.3851
-9.6276 -48.6698 27.5193
29.9326 -61.6544 46.5633
5.6969 -61.6544 46.5633
38.9515 -60.9997 33.5832
41.1107 -59.9231 20.5942
21.4834 -59.0575 7.6096
27.2545 -49.4095 44.8537
6.2697 -49.5354 44.8320
1.3353 -48.5373 32.0023
25.4233 -48.5127 30.9225
-10.4918 -48.6698 31.8475
29.5372 -47.8715 18.5580
35.1142 -47.7457 18.7960
27.5588 -61.6364 50.7972
34.0950 -60.7737 37.7926
41.5776 -59.9231 24.9224
-13.5033 -59.9128 25.0190
22.2566 -58.9423 11.8552
-3.4191 -59.0575 11.9378
25.9166 -49.5354 49.1602
8.1156 -49.5032 49.1834
-0.6343 -48.0163 23.2355
12.0840 -61.6544 55.2197
30.5871 -60.7887 42.2351
-8.3342 -60.8134 42.2312
38.6593 -59.0388 16.2687
17.8255 -58.3676 3.2740
1.2415 -58.2064 3.3939
10.0241 -70.2865 9.6027
20.2169 -49.5441 53.4780
1.5893 -48.6698 40.5039
-0.8463 -47.7876 28.0585
30.1891 -60.7887 46.5633
5.4347 -60.7887 46.5633
39.2349 -59.8490 33.5152
41.1942 -59.0575 20.5942
-10.4555 -59.0575 20.5942
21.5418 -58.1918 7.6096
3.2357 -70.3215 13.3233
15.9109 -70.2880 13.6654
26.3505 -48.6370 44.8368
6.7041 -48.6698 44.8320
27.6437 -47.8663 31.4374
0.7143 -48.0227 31.7600
-9.7027 -47.8042 31.8475
31.5046 -46.9398 18.6530
27.9751 -60.7620 50.8266
6.9824 -60.7887 50.8915
34.0772 -59.9330 37.8801
41.6904 -59.0575 24.9224
-13.5056 -59.0595 24.9742
22.1086 -58.1918 11.9378
-3.3055 -58.1918 11.9378
2.1578 -48.1996 36.1377
32.5495 -46.9351 22.5782
21.9152 -60.7934 55.1758
11.5812 -60.7974 55.2239
30.6363 -59.9301 42.1635
41.1844 -59.0575 29.2505
38.6699 -58.2076 16.2507
1.2484 -57.3293 3.4693
2.2044 -70.0513 22.7692
2.8232 -69.9313 21.9027
1.6764 -69.4451 9.3409
30.3480 -47.0192 27.8030
-1.9863 -47.2000 27.8863
30.3394 -59.9231 46.5633
5.2626 -59.9231 46.5633
-14.3186 -59.0575 33.5787
41.2195 -58.1918 20.5942
-10.5093 -58.1918 20.5942
21.5022 -57.3262 7.6096
-2.2369 -57.3418 7.6940
-1.7738 -70.3257 27.0574
2.3766 -70.0736 26.2161
4.2977 -69.5649 13.6534
17.1748 -69.4451 13.6691
1.1736 -69.7120 13.6956
7.2446 -47.8027 44.8325
30.7886 -46.8330 31.2358
-0.2493 -47.2715 31.9716
-8.5250 -46.9385 31.8475
6.7394 -59.9231 50.8915
41.7606 -58.1918 24.9224
-13.4091 -58.1918 24.9224
22.0936 -57.3262 11.9378
-3.1614 -57.3262 11.9378
2.4272 -70.0865 30.3768
-8.0204 -70.3108 30.9818
3.9674 -69.4551 17.9200
12.2242 -69.2371 18.0436
16.3588 -69.3955 17.5769
23.7054 -47.9081 49.1622
10.2547 -47.8042 49.1602
1.5027 -47.4995 36.4321
11.1395 -59.9231 55.2197
30.6517 -59.0475 42.1630
-8.2822 -59.0707 42.1897
41.2513 -58.1918 29.2505
38.6024 -57.3427 16.2249
-2.0645 -57.3262 16.2660
17.4176 -56.4605 3.2814
-7.0550 -70.2141 35.6229
2.2558 -69.8991 34.7570
23.9129 -69.2413 22.4304
35.4121 -69.4451 22.3254
0.3694 -68.4255 9.3525
34.6629 -46.2828 27.9230
33.8704 -46.3622 27.6360
30.4055 -59.0575 46.5633
5.1284 -59.0575 46.5633
-14.2515 -58.1918 33.5787
41.2102 -57.3262 20.5942
-10.4356 -57.3262 20.5942
21.3760 -56.4605 7.6096
-2.0688 -56.4605 7.6096
2.6609 -69.3373 26.2834
26.4696 -69.3152 26.5582
36.6352 -69.2108 26.6698
-7.8092 -69.4451 26.6536
18.0968 -68.5224 13.3094
-0.1720 -68.5795 13.6691
9.0966 -46.9385 44.8320
28.5098 -59.0575 50.8915
-12.5322 -58.2360 37.7573
41.7795 -57.3262 24.9224
-13.2587 -57.3262 24.9224
22.0795 -56.4605 11.9378
-3.0031 -56.4605 11.9378
2.9113 -69.4123 30.7053
31.5305 -69.5211 31.2684
-9.2058 -69.4999 30.9792
4.4722 -68.8517 18.3660
19.0925 -68.2597 17.3464
1.0669 -68.3931 18.2394
26.3033 -68.5772 18.0025
15.0964 -67.7320 4.7486
3.3129 -67.7139 5.0127
21.9439 -46.9873 49.1359
12.1550 -46.9385 49.1602
-3.8554 -46.1812 36.4319
22.7366 -59.0610 55.1057
-8.0006 -58.1918 42.2351
41.2568 -57.3262 29.2505
-14.2337 -57.3262 29.2505
-1.8415 -56.4605 16.2660
17.2193 -55.5949 3.2814
2.9339 -69.3829 35.3431
-8.7219 -69.4451 35.3100
3.8881 -68.4237 21.9040
1.4451 -68.5511 22.5712
16.0476 -68.5491 22.4544
18.3040 -67.7139 9.3409
-0.3356 -67.6956 9.3806
30.4219 -58.1918 46.5633
4.9821 -58.1918 46.5633
-14.1479 -57.3262 33.5787
41.1504 -56.4605 20.5942
-10.2637 -56.4605 20.5942
21.1470 -55.5842 7.5349
-1.8887 -55.5949 7.6096
3.3481 -68.4049 26.2369
37.4899 -68.5067 26.6795
-9.2195 -68.6284 26.6305
18.6772 -67.7139 13.6691
-0.9531 -67.7139 13.6691
28.6204 -58.1918 50.8915
6.6603 -58.1918 50.8915
-12.2773 -57.3262 37.9069
41.7463 -56.4605 24.9224
-13.0671 -56.4605 24.9224
22.0570 -55.5949 11.9378
-2.8625 -55.5949 11.9378
14.2720 -69.0614 43.9602
11.5823 -69.5461 43.9607
3.2975 -68.6272 30.3438
36.6698 -68.4828 30.9926
-10.4218 -68.5795 30.9818
21.3236 -67.3214 17.8337
20.6347 -67.7842 18.1796
24.1178 -67.6090 17.9371
19.9063 -67.8300 17.5202
0.2934 -67.6086 18.1012
2.1631 -66.8256 5.1849
16.5268 -46.3340 48.7513
19.1645 -46.0729 49.1602
22.7851 -58.1954 55.1535
30.4648 -57.3262 42.2351
41.1982 -56.4605 29.2505
-14.1069 -56.4605 29.2505
-1.6028 -55.5949 16.2660
16.8678 -54.7281 3.2267
2.2106 -54.8255 3.3731
3.4802 -68.5210 35.1800
4.4630 -67.8942 22.4960
-6.8521 -67.7139 22.3254
18.9205 -66.8482 9.3409
-0.9881 -66.8482 9.3409
30.3772 -57.3262 46.5633
4.9363 -57.3262 46.5633
-14.0064 -56.4605 33.5787
41.0331 -55.6024 20.5460
-10.0303 -55.6013 20.6081
20.8313 -54.7293 7.6096
-1.6785 -54.7293 7.6096
-5.7266 -68.5990 39.6543
15.3133 -67.7049 27.0887
4.1061 -67.5634 26.3386
38.3102 -67.7089 26.6573
-10.3808 -67.7139 26.6536
19.1874 -67.0590 13.5772
-1.5292 -66.8736 13.6651
28.6181 -57.3262 50.8915
6.6960 -57.3262 50.8915
34.5965 -56.4605 37.9069
-11.8375 -56.4099 38.2700
41.6639 -55.5949 24.9224
-12.8168 -55.5949 24.9224
22.0525 -54.7293 11.9378
-2.7133 -54.7293 11.9378
18.9142 -68.5763 44.1361
17.1496 -68.5223 43.6702
24.5344 -68.5811 43.8971
9.8426 -68.6962 43.9245
3.6299 -67.8980 30.9652
37.5551 -67.7134 30.9790
-11.3513 -67.7139 30.9818
21.9002 -67.0898 17.7120
22.5872 -67.1424 17.8997
-0.1772 -66.8684 18.1756
22.7832 -57.3263 55.1683
30.2770 -56.4605 42.2351
-13.9147 -55.5949 29.2505
38.0500 -54.7293 16.2660
-1.2257 -54.7293 16.2660
3.7393 -67.6678 35.2640
25.2210 -67.6846 35.5352
-8.3089 -66.8443 22.3288
30.2575 -56.4605 46.5633
5.1305 -56.4605 46.5633
39.2092 -55.6125 33.4924
-13.8113 -55.5949 33.5787
40.8626 -54.7293 20.5942
-9.6910 -54.7293 20.5942
-1.3868 -53.9035 7.6128
25.7783 -67.4786 39.3613
3.4065 -67.6348 39.5813
-7.4908 -67.7669 39.6754
4.5865 -67.0763 26.9431
39.0763 -66.8488 26.6561
-11.2415 -66.8482 26.6536
19.9610 -65.9408 13.3671
-1.9793 -65.9822 13.6594
28.5172 -56.4605 50.8915
6.7000 -56.4605 50.8915
34.8972 -55.6079 37.8204
-11.7835 -55.5883 37.9902
41.5208 -54.7293 24.9224
-12.5879 -54.8202 25.1032
21.7477 -53.7568 11.5126
-2.5280 -53.8636 11.9378
25.8782 -67.7139 43.9664
8.5657 -67.7139 43.9664
4.2024 -66.8409 30.7379
38.3171 -66.8457 30.9449
-12.1475 -66.8482 30.9818
-0.5506 -65.9826 17.9972
18.3165 -65.1169 5.0127
22.7399 -56.4622 55.1517
30.0617 -55.5949 42.2351
40.9285 -54.7294 29.2485
-13.6292 -54.7293 29.2505
37.6858 -53.8600 16.2415
-0.6449 -53.8636 16.2660
16.3389 -52.9980 3.2814
3.3788 -52.9980 3.2814
24.0421 -67.7139 48.2946
10.1554 -67.7139 48.2946
3.9237 -66.5538 35.5641
19.7695 -66.9078 35.7190
33.8624 -66.8482 35.3100
-11.4700 -66.8482 35.3100
39.2762 -65.9325 22.3119
19.4657 -66.0994 10.1147
-2.0613 -65.1169 9.3409
30.0744 -55.5949 46.5633
5.3186 -55.5949 46.5633
38.9617 -54.7293 33.5787
-13.5486 -54.7266 33.5907
40.6251 -53.8636 20.5942
-0.9969 -52.9980 7.6096
26.7550 -66.5536 39.3518
17.8426 -66.9803 39.6904
3.7238 -66.9389 39.3106
-8.6744 -66.8482 39.6382
39.6773 -65.9826 26.6536
20.8602 -64.7284 13.2556
28.3365 -55.5949 50.8915
6.6796 -55.5949 50.8915
34.9243 -54.7467 37.7783
-11.5022 -54.7293 37.9069
41.3128 -53.8636 24.9224
-12.0472 -53.8636 24.9224
21.5421 -53.1389 11.6107
-2.2399 -52.9963 11.9365
27.0383 -66.7994 43.9219
7.7178 -66.8482 43.9664
4.5969 -66.2856 31.2489
38.8547 -65.9826 30.9818
-12.7876 -66.0127 30.9670
37.5586 -65.0632 18.1055
-0.9189 -65.1169 17.9972
18.8035 -64.2513 5.0127
0.3293 -64.0485 5.0446
11.1374 -55.5949 55.2197
29.8129 -54.7204 42.2399
40.7083 -53.8636 29.2505
-13.2888 -53.8636 29.2505
-0.0850 -52.9980 16.2660
3.9332 -52.1462 3.3118
25.3487 -66.8455 48.1868
4.0754 -65.9609 35.4929
13.8902 -65.9835 35.7062
39.7365 -65.1169 22.3254
-10.0286 -65.0675 22.3264
-2.4443 -64.2513 9.3409
5.3959 -54.7293 46.5633
38.7267 -53.8636 33.5787
-13.2587 -53.8636 33.5787
40.3000 -52.9980 20.5942
-8.7413 -52.9980 20.5942
14.1827 -66.8684 52.7212
14.2943 -66.2440 39.7860
27.4946 -65.7227 39.8603
3.7520 -66.1857 39.6321
-9.2967 -66.0233 39.7359
40.1747 -65.1332 26.6634
-12.4120 -65.1169 26.6536
21.4479 -63.9974 13.3028
-2.6853 -64.2513 13.6691
6.7070 -54.7293 50.8915
34.4763 -53.8636 37.9069
41.0282 -52.9848 24.9200
20.9446 -51.8455 11.9837
-1.8138 -52.1324 11.9378
27.9489 -65.8713 43.9775
7.0959 -65.9826 43.9664
39.2822 -65.1080 30.9824
-13.3069 -65.1169 30.9818
-1.2470 -64.7163 18.3179
38.1798 -64.2513 17.9972
19.1857 -63.3857 5.0127
0.0309 -63.3857 5.0127
29.5494 -53.8636 42.2351
40.4305 -52.9980 29.2505
-12.9387 -52.9980 29.2505
36.7321 -52.0638 16.2710
15.0759 -51.2495 3.2794
4.7379 -51.2929 3.3268
26.2928 -65.9496 48.2672
4.6323 -65.2300 35.5134
7.9511 -64.9691 35.4335
-10.4986 -64.2513 22.3254
20.8867 -63.3857 9.3409
-2.7234 -63.3857 9.3409
29.5869 -53.8636 46.5633
5.3942 -53.8636 46.5633
38.4155 -52.9951 33.5654
-12.8997 -52.9980 33.5787
39.8592 -52.1324 20.5942
-8.2147 -52.1861 20.6743
18.7189 -51.2667 7.6096
0.0081 -51.2667 7.6096
27.9273 -64.8882 39.6267
11.7897 -64.9711 39.3684
3.8174 -65.5047 39.7608
40.5644 -64.2513 26.6536
22.4453 -63.1208 13.9582
28.0638 -63.3192 13.7401
-2.9713 -63.3857 13.6691
9.8645 -62.5241 0.6839
27.7539 -53.8636 50.8915
6.8318 -53.8636 50.8915
34.0800 -53.0131 37.8922
-10.5204 -52.9980 37.9069
40.7016 -52.1324 24.9224
20.5506 -51.2593 12.0419
-1.3048 -51.3025 11.9338
28.5619 -65.1169 43.9664
6.7604 -65.1169 43.9664
39.6021 -64.2513 30.9818
-13.7246 -64.2513 30.9818
-1.7450 -63.4984 17.8272
38.8044 -63.3857 17.9972
-0.5085 -62.5052 5.2022
12.0259 -53.8636 55.2197
29.2186 -52.9980 42.2351
5.4739 -52.9980 42.2351
3.4683 -52.9980 42.2351
24.2071 -51.0782 16.6471
0.2898 -51.5250 15.6959
35.9290 -50.9701 16.2500
26.0055 -51.2667 16.2660
13.3280 -50.3603 3.2618
27.1378 -65.0256 48.2760
7.7990 -65.1169 48.2946
36.6567 -64.1897 35.2352
-12.9610 -64.2513 35.3100
40.5995 -63.3857 22.3254
21.2881 -62.5200 9.3409
-2.9093 -62.5200 9.3409
29.2740 -52.9980 46.5633
5.3688 -52.9980 46.5633
38.0237 -52.1324 33.5787
39.2972 -51.2452 20.5542
-7.4319 -51.3198 20.6828
18.2943 -50.4011 7.6096
0.6883 -50.4011 7.6096
23.2875 -65.1169 52.6228
10.7215 -65.1170 52.6288
7.7224 -64.1386 39.7000
4.4441 -64.4173 39.7065
28.2009 -64.2513 39.6382
-10.4618 -64.2513 39.6382
40.8497 -63.3853 26.5007
-13.1943 -63.3857 26.6536
22.9154 -61.9975 13.9838
27.2160 -62.4027 13.7527
-3.2031 -62.5200 13.6691
7.2730 -61.6471 0.7296
7.0835 -52.9980 50.8915
27.8284 -52.1324 37.9069
40.1818 -51.0099 24.9562
-10.4591 -51.2667 24.9224
20.0258 -50.4011 11.9378
-0.5651 -50.3790 11.9368
29.1800 -64.2513 43.9664
6.4965 -64.2513 43.9664
39.8521 -63.3857 30.9818
-14.0392 -63.3857 30.9818
-1.8811 -62.5200 17.9972
19.6900 -61.6544 5.0127
21.1100 -52.9997 55.1814
12.5218 -53.0316 55.1105
6.0823 -52.1324 42.2351
1.2061 -52.1884 42.1852
39.7399 -51.2667 29.2505
-12.1139 -51.2667 29.2505
23.4185 -50.7075 16.6255
0.9614 -50.9030 15.8984
35.4758 -50.4011 16.2660
26.8825 -50.4011 16.2660
27.7090 -64.2513 48.2946
36.9351 -63.3857 35.3100
-13.3180 -63.3857 35.3100
-11.2932 -62.5200 22.3254
21.6123 -61.6544 9.3409
-3.0633 -61.6143 9.4042
5.4092 -52.1324 46.5633
37.5499 -51.2725 33.5716
-11.8235 -51.1730 33.6595
6.9212 -50.3051 20.5383
1.6651 -49.9259 20.9982
38.5934 -50.2715 20.5557
-6.2222 -50.4011 20.5942
17.7230 -49.5173 7.6097
1.6213 -49.5354 7.6096
24.2561 -64.2513 52.6228
28.5542 -63.3857 39.6382
-13.4913 -62.5057 26.7448
22.6323 -61.1583 13.1932
33.2337 -61.6777 13.6609
-3.2881 -61.6544 13.6691
26.8270 -52.1324 50.8915
7.2913 -52.1595 50.6884
23.0899 -51.0723 38.0085
-9.2184 -51.2583 37.9745
2.6628 -50.1719 25.4904
39.7991 -50.4011 24.9224
-9.7761 -50.4011 24.9224
19.3840 -49.5357 11.9378
0.3532 -49.6013 11.9345
29.7514 -63.3046 43.9693
6.1728 -63.3857 43.9664
-2.1999 -63.3332 43.9614
40.0633 -62.5028 30.9494
-14.2712 -62.5200 30.9818
39.6155 -61.6544 17.9972
-2.1626 -61.6544 17.9972
19.8165 -60.7887 5.0127
20.2228 -52.1521 55.1405
28.3449 -51.2667 42.2351
2.8202 -50.1087 29.7785
-11.7287 -50.5812 29.2816
28.5309 -49.6024 16.2711
28.2654 -63.3857 48.2946
6.8426 -63.3857 48.2946
37.2146 -62.5200 35.3100
-13.5814 -62.5515 35.3502
41.1623 -61.6544 22.3254
21.8204 -60.7887 9.3409
28.4665 -51.2667 46.5633
5.5982 -51.2667 46.5633
3.5864 -50.0284 34.1815
19.5930 -49.4509 20.0068
38.0259 -49.5354 20.5942
-4.8478 -49.6050 20.6178
17.0194 -48.6135 7.6687
25.0163 -63.3857 52.6228
9.3224 -63.3857 52.6228
28.4767 -62.5200 39.6382
-10.9797 -62.5409 39.7181
41.2485 -61.6157 26.2503
-13.6604 -61.6544 26.6536
22.8122 -60.1813 13.2025
26.3395 -60.8053 13.7633
-3.2187 -60.7887 13.6691
7.2861 -59.9326 0.7128
26.2330 -51.2850 50.8588
8.1236 -51.2218 50.9729
4.3429 -50.1155 38.4504
1.5894 -49.5833 25.1547
-8.9072 -49.5354 24.9224
30.1449 -62.5200 43.9664
5.8401 -62.5200 43.9664
-3.1676 -62.5323 43.9975
-14.4099 -61.8065 30.9606
39.8503 -60.7887 17.9972
-2.5487 -60.7887 17.9972
19.8532 -59.9231 5.0127
-0.6638 -59.9143 4.9882
6.7178 -50.4011 42.2351
1.7176 -49.3801 29.6518
38.7207 -49.5354 29.2505
32.3701 -48.6656 16.2611
30.0523 -48.6698 16.2660
28.8167 -62.4535 48.2018
37.5781 -61.0359 35.3032
-13.7992 -61.6544 35.3100
41.3329 -60.7887 22.3254
21.9296 -59.9231 9.3409
6.0041 -50.4011 46.5633
2.5241 -49.1879 34.0157
36.3149 -49.5354 33.5787
-10.6889 -49.5354 33.5787
25.1951 -48.7666 20.3511
37.2309 -48.6698 20.5942
15.9248 -47.7995 7.3608
4.1701 -47.8042 7.6096
8.9887 -62.5889 52.6609
29.5145 -61.7419 39.6855
-11.0294 -61.6981 39.8485
41.3987 -60.7335 26.4012
-13.8511 -60.8112 26.8304
22.8832 -59.3894 13.2096
34.1199 -59.9063 13.4848
26.3086 -59.9224 13.6881
7.2868 -59.0873 0.7614
25.4027 -50.4254 50.8828
8.7429 -50.4011 50.8915
3.5376 -49.4091 38.0359
-0.0310 -48.5799 25.1681
19.9201 -48.7462 24.7475
38.4548 -48.6591 24.9174
-7.8854 -48.6698 24.9224
30.4569 -61.6544 43.9664
5.6451 -61.6544 43.9664
1.2065 -61.6464 43.9232
40.2205 -61.2055 31.0876
-14.5326 -60.7887 30.9818
-2.8513 -59.9231 17.9972
19.8546 -59.0575 5.0127
26.8096 -49.5282 42.2400
6.9950 -49.5354 42.2351
0.8801 -48.6772 29.7042
38.0500 -48.6698 29.2505
-10.3115 -48.6698 29.2505
29.1458 -61.6544 48.2946
6.0333 -61.6544 48.2946
-13.8837 -60.7887 35.3100
41.4753 -59.9231 22.3254
-12.1005 -59.9231 22.3254
21.9567 -59.0575 9.3409
6.4030 -49.7959 46.5738
26.5604 -48.6211 33.2378
1.7763 -48.4530 33.7939
35.4352 -48.6698 33.5787
28.8045 -47.8513 20.4018
36.2208 -47.7079 20.6709
14.4857 -47.2020 7.8409
13.9398 -47.1247 7.2682
8.6167 -61.6544 52.6228
29.4675 -60.7887 39.6382
-10.9940 -60.7581 39.9675
41.5276 -59.8965 26.4517
-13.9516 -59.9331 26.9004
23.2526 -58.6105 13.6982
26.1612 -59.0575 13.6691
-2.9612 -59.0575 13.6691
10.7305 -58.0515 0.6731
8.1381 -58.2010 0.6843
24.5176 -49.6190 50.8808
3.0317 -48.7555 38.0842
-2.9336 -47.3450 24.7282
37.6066 -47.7855 24.9199
30.6562 -60.8758 43.9743
5.5916 -60.7887 43.9664
1.2101 -60.7772 43.9353
-4.0002 -60.8078 43.9849
40.4545 -59.9231 30.9818
-14.5710 -59.9231 30.9818
-3.4366 -59.0575 17.9972
19.8288 -58.1918 5.0127
10.4246 -70.2770 11.4386
15.7305 -70.3072 11.1017
10.2840 -48.6318 42.0982
25.7580 -48.6774 42.2263
27.1157 -47.7404 28.2351
29.5006 -60.7887 48.2946
5.6773 -60.7887 48.2946
-13.9097 -59.9231 35.3100
41.5597 -59.0575 22.3254
-12.1585 -59.0575 22.3254
21.9651 -58.1918 9.3409
-3.0623 -58.2176 9.3517
15.2422 -70.1650 14.7639
13.8456 -70.1171 15.2923
3.7954 -69.9587 14.9921
2.5674 -70.3108 15.4003
1.3081 -48.0394 33.6105
28.3385 -47.8098 33.4687
26.4931 -60.7887 52.6228
8.1632 -60.7760 52.4693
-10.9830 -59.8947 39.9805
41.6063 -59.0575 26.6536
-13.9536 -59.0476 26.9414
23.0924 -58.0500 13.6495
25.4495 -58.1683 13.6771
-2.9184 -58.1918 13.6691
3.1776 -69.8835 20.4634
3.4876 -69.5473 19.7819
2.6973 -48.2258 38.4719
32.5885 -46.8745 24.5209
-3.4325 -47.1060 25.2965
36.6969 -46.9323 24.9238
30.7640 -59.9231 43.9664
40.5624 -59.0575 30.9818
-14.5295 -59.0575 30.9818
-3.8193 -58.1918 17.9972
19.7175 -57.3262 5.0127
-0.5216 -57.3512 5.0609
0.0842 -70.0901 24.6472
2.3970 -70.1169 23.7204
5.8616 -69.5983 11.0495
17.0828 -69.4451 11.0721
1.2034 -69.5847 11.0566
17.1976 -48.1386 41.9630
30.2808 -47.0006 28.8532
-1.6580 -47.0780 29.3160
36.2996 -46.9385 29.2505
29.7540 -59.9135 48.2562
5.4199 -59.9190 48.3038
38.0106 -59.0575 35.3100
-13.8620 -59.0575 35.3100
41.5955 -58.1918 22.3254
-12.1157 -58.1918 22.3254
21.9376 -57.3262 9.3409
-2.9216 -57.3262 9.3409
2.4429 -70.0530 27.9583
17.1052 -69.2968 14.9533
4.2360 -69.5581 15.2598
24.7274 -47.6842 46.5722
30.3770 -46.9778 33.1168
0.5128 -47.3614 33.7828
26.7791 -59.9231 52.6228
8.1145 -59.9180 52.6698
29.9156 -59.0575 39.6382
-11.2342 -59.0575 39.6382
41.6639 -58.1918 26.6536
-13.6412 -58.1922 25.7800
25.1704 -57.3262 13.6691
22.7266 -57.3262 13.6691
-2.8394 -57.3262 13.6691
2.3664 -69.8995 32.0029
26.1674 -69.2566 20.1501
14.7347 -69.1781 19.5569
15.5002 -69.2893 19.0802
2.1149 -68.5272 6.9760
21.5642 -47.8042 50.8915
12.0985 -47.8042 50.8915
2.0157 -47.2979 38.2206
-3.9866 -46.9191 38.0817
30.7823 -59.0575 43.9664
5.3496 -59.0575 43.9664
-3.8050 -59.0147 43.9622
40.6635 -58.1918 30.9818
-14.4478 -58.1918 30.9818
-4.1761 -57.3262 17.9972
19.4521 -56.4415 4.9680
-0.5019 -56.5291 5.2097
-6.0551 -70.1028 37.0233
2.0261 -70.0842 36.5696
1.8629 -69.3480 24.1256
36.0735 -69.4451 24.0567
18.0083 -68.5795 11.0721
-0.0336 -68.5795 11.0721
19.9089 -47.3602 42.4661
32.9849 -46.3288 29.0791
35.1768 -46.0729 29.2505
5.2603 -59.0575 48.2946
38.0940 -58.1918 35.3100
-13.7852 -58.1918 35.3100
41.5866 -57.3262 22.3254
-11.9973 -57.3262 22.3254
21.8624 -56.4605 9.3409
-2.7486 -56.4605 9.3409
2.8801 -69.3646 28.1164
30.7399 -69.4240 29.0782
36.6781 -69.1632 28.3558
-8.6540 -69.4451 28.3849
18.1569 -68.4729 14.8839
7.0197 -68.6651 15.7018
4.7087 -69.1466 15.6109
23.4068 -46.9385 46.5633
27.1619 -59.0135 52.4343
7.9100 -59.0575 52.6228
29.9973 -58.1918 39.6382
41.6757 -57.3262 26.6536
-13.7382 -57.3262 26.6536
34.8838 -56.4473 13.7464
25.2392 -56.4605 13.6691
22.7165 -56.4605 13.6691
-2.7219 -56.4605 13.6691
30.4058 -69.5703 32.8954
2.7450 -69.4615 32.5570
3.9418 -68.9619 19.6204
20.0589 -68.4328 19.1466
23.4109 -68.4071 19.5238
1.1055 -68.2833 19.6128
12.5754 -68.6265 19.9209
34.8256 -68.5458 19.7913
17.1715 -67.7139 6.7439
1.2821 -67.6823 6.8287
30.7473 -58.1918 43.9664
5.2791 -58.1918 43.9664
-3.5126 -58.1918 43.9664
40.6933 -57.3262 30.9818
-14.3578 -57.4261 30.9999
39.8887 -56.4605 17.9972
19.1797 -55.5949 5.0127
-0.1079 -55.5949 5.0127
2.9190 -69.3752 36.8433
-7.7052 -69.4451 37.0413
3.7943 -68.1085 23.6223
19.8027 -68.6155 24.5992
37.2377 -68.5281 24.0703
-7.4456 -68.5730 24.0746
-0.8482 -67.7139 11.0721
29.9383 -58.1918 48.2946
5.2152 -58.1918 48.2946
38.0983 -57.3262 35.3100
-13.6707 -57.3012 35.3307
41.5320 -56.4605 22.3254
21.7278 -55.5949 9.3409
-2.5368 -55.5949 9.3409
3.3816 -68.4276 28.0847
37.4406 -68.5230 28.4005
-9.9622 -68.5698 28.3883
19.0712 -67.5684 15.0055
8.1317 -66.8483 2.4165
20.5951 -46.2518 47.0434
17.3369 -46.2168 46.3342
27.1245 -58.1904 52.5226
7.8005 -58.1918 52.6228
30.0035 -57.3262 39.6382
-10.9385 -57.2965 39.6818
41.6465 -56.4605 26.6536
34.1226 -55.5748 13.5009
25.7647 -55.5949 13.6691
22.4473 -55.5949 13.6691
-2.5663 -55.5949 13.6691
14.4103 -69.2069 45.2334
11.8526 -69.4451 45.6977
28.4142 -68.6763 33.0575
3.4601 -68.2836 32.7267
-10.0971 -68.8252 32.7152
0.1466 -67.2967 19.8107
10.1465 -67.8905 20.3209
4.6141 -68.3980 19.9528
18.0343 -66.8707 6.7459
0.5704 -66.8482 6.7439
30.6466 -57.2621 43.9869
5.2562 -57.3262 43.9664
40.6348 -56.4605 30.9818
-14.2068 -56.4605 30.9818
39.7520 -55.5949 17.9972
-3.9426 -55.6145 17.9979
18.8049 -54.7293 5.0127
3.4825 -68.5597 36.9697
4.2913 -67.7174 23.7567
38.1161 -67.7001 24.0378
-8.7995 -67.7139 24.0567
19.1754 -66.8482 11.0721
5.3102 -57.3262 48.2946
38.0444 -56.4605 35.3100
-13.5151 -56.4461 35.3132
41.4321 -55.5949 22.3254
-11.5454 -55.6111 22.3504
21.5185 -54.7293 9.3409
