14.2054 -76.7727 52.1687
13.6282 -77.3006 53.7657
18.6221 -48.7952 49.9669
31.7488 -58.6218 53.6284
31.9592 -59.2467 68.6738
20.7111 -54.3195 65.1850
9.4580 -49.8390 49.5618
33.2385 -70.2251 55.3468
22.4621 -65.3926 74.3534
-0.6248 -49.9334 16.0781
0.6572 -56.5050 14.4877
1.6448 -61.9086 14.5183
13.2989 -71.0547 16.0121
14.6792 -76.9818 46.9332
13.7046 -77.4382 63.0415
21.4329 -54.3704 48.0728
21.6090 -61.3330 73.2592
12.4122 -54.8082 9.5642
23.6380 -65.5123 74.2897
24.6585 -71.3822 73.9785
24.5772 -70.7493 47.3949
15.2315 -71.6773 73.0899
14.5572 -77.7250 64.8264
20.7860 -43.4731 41.9440
22.3306 -48.5744 11.5743
33.8168 -58.9372 66.5872
5.0109 -78.1821 31.7579
5.9977 -78.2675 28.5708
5.3741 -78.1617 32.7472
22.4398 -54.2692 47.3536
34.8070 -64.6360 65.9690
34.7478 -64.3376 54.6619
12.5717 -48.0860 11.0607
11.8298 -50.1645 50.8761
12.7200 -55.1820 52.3317
12.6874 -55.2403 57.4218
12.7400 -55.4311 62.9865
0.6111 -51.0078 45.2217
14.8816 -71.1939 15.8753
4.0623 -67.0289 15.5445
17.6288 -77.2521 51.2737
5.2814 -72.3572 18.9922
22.0148 -48.6959 49.1859
6.9453 -78.4667 28.7078
6.2929 -78.1269 34.5605
23.8066 -54.1690 59.3679
23.3408 -54.6466 67.5171
23.7280 -54.2647 46.7748
13.4200 -60.3023 67.9154
27.3106 -76.1988 51.9730
22.4811 -37.8353 19.8382
21.6246 -37.8471 38.2514
17.3152 -77.8115 68.3324
15.7704 -76.1785 70.5127
12.8391 -50.0721 51.0315
25.5095 -59.4962 49.2320
25.5658 -59.9891 47.3692
26.5543 -64.5638 15.3550
15.4523 -60.6808 67.5549
17.0002 -71.6809 16.2148
-5.6968 -56.2809 29.3829
7.3967 -68.1519 49.0554
18.2419 -77.4381 68.9123
23.7439 -43.2073 14.1169
6.9382 -72.5921 55.5995
26.4764 -54.1905 60.4577
26.1873 -55.1464 12.4667
26.5947 -59.9561 46.2248
15.5763 -54.6464 9.7998
14.8386 -55.3591 63.5027
27.3135 -64.9285 48.4090
27.3683 -65.6969 44.6946
27.7013 -71.5921 26.2964
18.2240 -71.6941 16.4419
7.5453 -64.4821 53.8038
18.8649 -77.1579 51.3980
15.1853 -49.9599 50.9821
27.8648 -59.6437 51.0567
16.1962 -55.6819 63.8092
28.9224 -65.0795 43.8044
6.9728 -60.8054 56.4866
8.2478 -67.0273 50.1427
7.6748 -66.5522 14.2252
19.9051 -77.1853 51.2889
25.6428 -44.1281 40.1598
9.3969 -72.8228 68.3112
7.9391 -72.1708 18.0336
13.5579 -39.7486 41.0575
27.5890 -54.5945 58.1910
27.4524 -54.5387 46.1935
5.0030 -45.1384 45.1169
29.0171 -65.7302 42.9943
8.1609 -61.3610 53.9091
18.4495 -71.3904 73.4646
19.9191 -71.6341 17.0058
-2.8843 -56.3472 18.0098
9.1782 -65.5649 13.5516
21.2510 -77.2371 51.7766
-1.7322 -63.2460 42.8600
25.9412 -48.8528 46.7337
-0.5474 -67.9694 41.3285
28.3147 -54.2647 46.1331
5.3292 -39.7583 37.1389
16.4549 -50.2854 50.9425
29.2874 -59.5519 51.7231
29.3696 -60.5615 71.0761
28.3517 -59.6552 45.3482
17.8958 -54.3468 63.6954
30.2955 -65.5144 39.4674
19.1539 -60.8606 70.3193
31.0898 -71.1771 71.4983
18.7286 -65.6508 14.3598
-2.7536 -52.7448 41.3801
27.0738 -44.1333 38.9429
12.2017 -72.9828 17.7113
10.8853 -72.6114 47.6608
-0.2875 -67.9369 20.0345
-0.9583 -66.6587 42.1663
19.0799 -43.9540 13.5551
29.5366 -53.5728 15.2368
29.2320 -54.2647 45.8083
31.0960 -66.0290 70.4298
19.2395 -60.5864 11.9119
10.0316 -61.6353 70.1999
11.4205 -72.6232 71.0753
16.8494 -44.3113 43.8555
29.9321 -54.3203 45.5045
20.5767 -49.4321 10.9897
18.7057 -49.5543 50.1637
19.6993 -55.2680 65.0761
32.6231 -65.7051 52.7986
22.5089 -59.1095 72.1870
-2.0726 -45.6895 39.5270
-0.0166 -57.0297 46.4070
29.2983 -43.5307 35.4872
1.7507 -67.5339 17.3310
31.8747 -58.5705 22.0930
31.6600 -59.7168 52.6564
20.5878 -55.1363 49.2089
33.4773 -70.6886 68.7534
10.8741 -56.0487 63.0124
11.8026 -61.6034 70.8091
23.7150 -71.6937 47.3885
12.7486 -67.4540 72.6568
25.1936 -77.2783 63.2826
13.2830 -72.9919 72.1481
15.1532 -37.9510 39.9417
31.0340 -48.3909 20.0433
3.6301 -73.3914 20.5211
20.1479 -49.6923 49.7973
21.6842 -55.2109 48.0875
0.6408 -44.3616 18.1110
11.7464 -56.2637 63.8350
25.6370 -77.1771 64.5723
31.8343 -48.8193 36.5831
19.9448 -44.3047 42.7342
4.3531 -73.5068 42.7945
12.6831 -56.0901 56.4643
12.6899 -56.1367 63.7757
12.8359 -56.1181 52.8360
13.4369 -60.8511 11.3604
3.0065 -57.6124 48.1026
26.8912 -77.2104 65.1319
26.4806 -77.1960 52.9253
3.3165 -63.2971 48.6506
15.5986 -73.2295 72.6649
16.3893 -78.1154 67.8352
22.4274 -43.5165 13.6145
5.6284 -74.3098 43.3403
23.7444 -55.1825 46.5874
13.2496 -56.4285 54.2992
13.6373 -56.0994 56.0289
13.4796 -56.5460 64.0810
2.7142 -51.6859 47.0124
25.6835 -72.1748 73.6873
27.5728 -77.1331 62.4143
17.3067 -78.1154 68.5728
22.4588 -44.3541 41.9086
22.8080 -44.1237 13.2893
23.3425 -49.6576 49.1594
7.8088 -78.6280 28.3730
24.6327 -54.2506 11.8802
24.6453 -55.1820 46.2002
1.8826 -40.6452 34.7381
15.8534 -66.4501 14.2296
3.7359 -68.1228 47.2313
5.5941 -65.9272 55.5934
11.0381 -39.4047 41.1477
13.6222 -38.3684 18.0295
25.6892 -55.3094 56.9739
25.9149 -55.6702 45.8324
27.3541 -60.1723 72.1901
26.7593 -60.7212 46.5269
3.6971 -45.3348 44.6514
27.6313 -72.3559 73.0334
18.0326 -66.6735 14.5692
6.9308 -62.5352 54.9849
24.6561 -44.4211 40.8881
8.2613 -73.5561 54.6860
7.8544 -74.0737 45.3250
25.3567 -54.3914 59.6162
27.4805 -59.8501 14.3915
27.3973 -60.6860 45.9943
4.6085 -46.1151 45.4221
-4.6391 -52.8721 36.1308
17.6225 -72.9300 73.1149
23.6800 -38.5928 38.0355
8.2330 -68.4400 49.4080
26.0943 -49.6736 47.2477
-2.0641 -68.9424 33.4703
9.5430 -78.8116 26.0259
27.6037 -55.5932 56.1715
28.9833 -58.5752 15.4311
17.3565 -56.7607 64.4570
30.3619 -65.3753 50.7560
15.9068 -61.3684 11.5146
25.6136 -38.6184 30.8638
25.2224 -38.4654 36.3265
9.6816 -67.6658 70.1949
10.3599 -73.0058 52.4278
28.9018 -49.6886 44.3945
10.8858 -78.7560 25.4773
10.8853 -79.0327 25.1504
28.3147 -55.1820 45.9451
17.6833 -50.8635 50.7277
6.0704 -46.7510 46.4467
18.1815 -56.7011 64.7542
-2.9041 -51.0683 18.1452
8.5253 -62.4490 69.4872
9.7619 -73.7844 46.4994
29.1785 -55.3536 45.7550
19.7631 -61.9094 72.7773
-2.0560 -52.3236 16.8708
9.9054 -62.5085 70.4268
21.7821 -72.4453 45.5138
10.9234 -69.6405 71.6335
28.0371 -43.5954 20.2366
11.8378 -73.4178 51.0134
11.4436 -73.5591 70.1899
18.3019 -51.1136 10.6433
31.7763 -66.1677 69.2074
10.6746 -56.1745 58.1281
22.7911 -72.5767 47.4954
21.5876 -72.5489 73.7542
0.3976 -63.7043 45.9567
12.2005 -73.3063 48.7493
12.7200 -73.5287 50.4853
30.3539 -49.6402 42.3062
21.4826 -45.0817 12.6325
30.5917 -54.7134 17.0258
31.1394 -55.1938 62.6245
20.3276 -50.7686 49.6026
32.0666 -60.6499 52.5756
32.0413 -61.1607 69.4153
20.3531 -55.5604 11.2510
33.4309 -71.7697 69.1423
-1.1001 -46.5777 17.9073
10.8853 -57.0167 52.3791
22.1092 -67.2194 73.9665
11.0984 -62.5896 71.1193
2.5125 -68.4543 17.3575
18.7547 -45.2811 44.1647
33.3181 -60.7130 53.6410
33.8900 -66.6766 67.0038
10.4463 -51.2301 10.0964
20.7293 -63.3218 74.0885
23.4862 -68.3463 73.9432
24.3975 -65.7391 15.2195
12.7200 -62.5207 71.8995
24.1442 -72.5705 73.8962
3.2800 -63.6681 14.2997
3.9358 -68.7426 16.9542
23.4048 -50.4570 48.9001
33.9102 -61.1494 67.5911
21.2209 -55.2503 50.2278
11.8026 -51.5127 51.5842
13.6261 -49.6940 10.3434
12.7121 -57.1693 64.6796
13.3670 -62.6291 71.6978
25.6098 -71.2722 48.4217
35.7733 -66.1945 56.3531
13.1432 -51.2592 51.6163
26.4720 -72.4132 24.1454
14.5177 -68.8572 73.0536
27.5271 -77.5786 54.4319
27.3973 -78.1154 55.3649
4.0140 -62.4867 13.4546
24.6453 -56.0994 46.0990
25.1347 -60.4606 13.3553
3.5799 -52.9506 12.4798
22.8096 -39.0321 18.4677
24.6295 -50.6637 48.3816
25.4996 -55.7125 12.1634
25.5627 -56.0994 45.7955
2.4317 -41.2502 18.9324
15.2635 -57.5722 64.7106
28.5604 -70.1351 49.2408
4.9782 -58.8655 49.6284
19.0526 -72.9996 18.0988
25.5627 -50.5953 47.8675
24.1803 -50.5804 12.1202
14.1331 -43.7831 13.4474
3.6612 -41.3678 39.9583
27.1592 -61.3178 48.9603
27.2931 -61.5235 46.1745
15.7667 -56.5327 10.2407
16.4663 -57.2532 64.5633
28.5033 -67.3899 49.2635
17.3120 -62.5479 72.7911
6.6646 -56.3899 10.7357
7.5326 -63.3437 53.8488
13.6373 -35.0006 35.8789
24.6011 -44.3599 13.9759
9.0604 -74.3700 54.7355
27.6647 -55.4717 13.3375
3.4244 -42.0859 40.9986
15.9389 -51.7824 51.5396
28.3439 -61.7448 49.8982
29.1948 -67.9647 72.2549
29.5998 -73.4613 72.1400
7.2586 -63.4081 68.5375
8.6080 -68.4744 15.5592
14.5492 -35.4475 37.0726
14.5546 -35.0006 37.5413
25.4853 -43.4757 15.1454
10.5622 -74.2694 53.3541
9.4919 -74.9577 45.2567
-1.1576 -69.9281 33.3104
29.2072 -55.9617 55.4874
28.0701 -57.0085 45.3877
8.8067 -63.3808 69.5767
20.9012 -73.9128 47.8096
19.1958 -73.6920 73.1099
9.6497 -67.9303 15.1679
17.1268 -45.7118 45.2002
5.7895 -42.6432 42.7906
30.1494 -61.6034 44.3405
20.7499 -61.8307 73.2601
20.1444 -62.2299 12.4683
9.9276 -63.4045 70.4284
-0.3347 -63.5681 16.9344
11.8235 -74.4167 51.9963
18.8701 -41.4797 41.3104
0.7683 -69.6232 18.9317
18.2271 -46.1659 45.4821
30.1901 -56.6903 45.1645
19.0449 -51.5346 49.9928
32.4732 -61.7319 52.6608
30.1652 -62.4875 71.1170
21.7642 -62.7501 13.0924
9.6568 -58.3012 52.0639
18.6844 -68.5993 73.3524
11.7639 -70.2553 72.3126
1.0595 -63.5959 15.5999
12.7850 -74.3842 51.1248
20.0587 -51.5127 49.5040
10.8016 -57.9049 52.9627
11.5616 -63.5813 71.6423
23.3431 -73.4580 73.6446
12.7104 -70.4084 72.7545
12.8623 -68.6381 14.9532
12.9656 -75.1721 49.3371
13.6373 -74.4461 50.7639
19.7411 -45.9800 45.1898
8.6867 -41.9344 42.8043
8.2614 -40.3831 16.8973
22.9431 -54.4859 11.4946
10.9459 -52.6933 51.7166
0.1636 -47.2014 16.5391
11.1899 -55.9961 9.7154
24.3496 -72.8991 48.4745
1.2633 -59.5935 47.1969
13.7069 -70.6418 72.9760
10.7824 -40.8245 42.0700
10.8629 -39.9941 16.5822
21.0895 -51.5231 49.0935
22.7426 -57.0274 48.3089
11.8272 -52.7416 51.9597
23.1820 -63.0620 74.0533
12.9200 -56.3744 9.7388
12.3137 -57.8765 65.4553
1.9360 -52.4774 13.6793
12.7795 -63.2407 72.2453
15.0775 -68.8647 14.6914
5.6217 -69.6731 17.1804
3.7310 -69.6086 46.3849
9.9597 -35.9213 22.5837
22.2283 -47.8967 48.4414
22.4712 -51.0944 11.1904
34.7825 -61.0703 55.7857
24.7067 -56.7485 12.0355
26.5142 -73.4423 28.1863
26.4884 -73.4328 26.1905
3.4092 -59.3437 48.6726
5.1672 -68.6688 56.4970
22.8166 -45.4019 12.7260
5.7543 -75.2449 41.7289
24.6453 -57.0167 46.1734
13.0235 -52.9002 52.0617
16.9925 -69.1374 14.8924
5.9354 -70.6884 46.8258
11.8026 -35.9180 21.3263
11.8140 -36.0924 37.1686
23.7495 -45.5005 13.0796
24.3212 -51.4687 48.0338
25.4797 -56.1723 54.9629
24.7493 -56.9209 71.2660
25.6403 -57.2843 45.7393
26.5504 -60.6835 14.0586
15.4840 -63.4537 73.2785
27.8849 -73.4882 72.7895
23.6363 -39.7843 17.9764
12.8048 -35.9196 37.2457
26.3239 -56.2555 54.9905
27.3256 -62.4538 46.1793
17.3067 -63.4380 73.6457
17.6418 -62.6465 12.3607
7.2354 -64.7151 50.1853
18.8353 -74.7777 46.4168
8.1920 -70.6934 67.5768
26.4800 -51.5127 47.1919
27.7374 -56.5615 54.6526
27.6666 -57.0293 13.3810
16.3893 -52.4300 51.5409
29.2308 -61.2566 17.5796
27.2525 -62.5323 72.7113
27.5119 -63.2662 45.8681
17.2861 -58.4186 65.6039
7.5390 -52.8891 10.4668
19.8212 -68.1747 15.3379
17.4162 -74.9081 72.2063
14.6238 -35.9189 37.5424
14.5564 -35.8701 20.7794
14.2401 -41.1774 41.8401
28.5658 -56.7795 14.2031
19.7196 -57.9823 11.6100
30.1010 -69.9451 72.0737
18.8890 -63.4344 73.8142
-3.5337 -48.7587 20.3732
11.2394 -59.0665 10.5756
8.8804 -64.3213 69.3418
9.8761 -62.8644 12.3145
20.9760 -74.4461 48.8625
9.3366 -69.3665 69.7146
15.4492 -35.8770 20.7625
27.7094 -51.3935 46.5107
29.5894 -56.9788 54.2619
29.2320 -57.0167 45.2994
18.2240 -52.4300 50.6325
31.0540 -67.8573 50.9534
21.8203 -73.9821 48.4690
26.7881 -40.2843 37.0614
16.6793 -47.7767 49.0177
30.1731 -56.8276 54.7253
6.3113 -40.7851 17.2258
18.8410 -52.4215 50.1099
7.2676 -47.2514 47.2374
31.9729 -67.9194 51.9360
31.9588 -68.1355 69.2871
9.7673 -52.9166 9.8192
29.9204 -51.7616 44.8083
32.6153 -68.2604 68.3241
10.8626 -58.9572 67.6452
23.4968 -74.4839 73.1308
2.9919 -71.1435 43.9779
2.5805 -70.7558 18.3399
21.4840 -51.7867 10.9092
12.8857 -64.7463 72.5943
2.9138 -64.8600 15.0909
13.9799 -75.4553 50.9244
14.6096 -75.3659 51.0569
3.1820 -70.4164 45.1130
3.5180 -70.6662 18.0143
33.8471 -61.9819 53.7955
1.4095 -47.5160 15.6871
12.6438 -58.9654 66.3907
14.1524 -64.2797 12.9642
22.8107 -52.4300 11.2368
11.0133 -47.6687 48.6011
23.9589 -57.8717 49.7160
23.7253 -58.0546 72.0764
24.5691 -63.9746 74.0256
25.6548 -69.8098 73.8221
25.6161 -68.5316 47.4234
0.9925 -54.3528 46.5617
26.4800 -74.4461 72.7315
6.2160 -76.3432 38.1864
23.7565 -52.1774 11.5964
24.7426 -58.3051 72.2666
24.5832 -57.9522 46.3626
14.1233 -58.6317 65.4634
26.6822 -68.7872 48.3042
14.2945 -64.6602 73.2215
6.0726 -64.9909 13.6988
22.3378 -40.5372 40.2514
23.2021 -47.2470 46.4586
25.3918 -52.8329 12.3477
26.0845 -58.3402 51.2341
14.5579 -53.8288 51.9710
-5.7469 -55.1925 33.3764
3.7380 -64.5767 48.5950
18.6657 -75.2766 47.6767
12.6001 -42.6922 43.0267
25.6819 -51.8680 47.3104
26.4696 -57.3477 12.6034
15.4720 -53.3473 51.8372
28.8971 -68.9581 49.3030
28.9370 -74.6464 71.4287
7.2657 -60.1032 11.8055
6.2144 -60.3473 50.1479
7.2823 -66.6887 67.7833
24.1215 -41.0471 39.9447
9.8895 -70.9413 16.7987
9.0911 -75.7424 21.0972
26.4800 -52.4300 46.9316
14.2758 -47.9172 49.1563
26.6371 -57.9472 71.5862
26.9809 -57.9741 45.4623
15.7513 -53.3567 62.0802
8.0875 -63.7377 52.9245
8.7185 -70.6941 48.2761
14.5645 -36.6138 19.8431
12.7272 -36.7003 38.3810
19.5058 -41.9032 15.2499
27.3973 -52.4300 46.6549
28.6308 -57.2706 53.7884
28.3147 -57.9340 45.2521
6.7637 -43.1896 15.5653
4.9037 -45.7073 15.2014
8.1370 -60.0881 51.4645
20.8715 -70.5587 16.5980
20.9820 -75.2706 49.3389
9.9671 -70.8097 49.2269
15.5830 -37.0591 38.9784
28.8528 -48.7097 43.1348
10.9012 -75.6139 20.2657
16.0460 -42.9201 42.8951
28.0958 -52.3845 46.4000
19.3069 -53.5501 10.7317
29.8806 -62.2538 50.7314
7.0543 -49.6637 48.4276
31.1286 -68.9485 50.9659
21.0106 -63.8015 13.4943
8.8341 -59.8719 52.1186
11.2785 -64.1625 12.8214
22.5770 -75.0746 49.1312
20.6926 -75.4716 72.3014
-0.9435 -60.3774 16.3278
10.9116 -71.2441 71.3335
16.3893 -36.8353 38.7326
11.9673 -75.8239 20.2800
11.8165 -76.3703 59.5961
28.8990 -51.0169 15.2147
0.8119 -71.6805 20.8035
29.1228 -58.3535 70.0301
30.0323 -57.8996 44.9901
19.4415 -53.4156 52.0556
18.9572 -53.3481 50.1378
31.3963 -63.8572 51.7479
9.6326 -54.2136 9.7823
-1.8241 -49.7456 17.1631
22.7907 -75.5189 72.3876
0.4745 -60.3287 15.0256
-0.6335 -59.7638 45.4333
1.3606 -71.6569 35.9518
31.0935 -57.1267 44.6744
8.7493 -42.8410 15.0666
19.9728 -53.3382 49.1804
9.3226 -57.3051 51.5876
21.4319 -64.3667 74.3588
0.0179 -55.9392 46.3601
18.2240 -36.8353 38.3866
30.0661 -46.9634 37.3373
1.7892 -65.3710 16.1398
2.6383 -71.6435 18.9726
4.3363 -73.9156 41.7166
31.9354 -57.9383 43.6611
22.2622 -59.4960 12.2920
34.2308 -69.2432 67.1239
-0.7572 -43.4402 38.5203
11.3736 -53.5177 9.5815
0.0692 -49.1138 15.8184
11.7992 -59.9125 68.5049
19.1344 -36.8358 38.0918
21.6222 -47.2151 11.7513
20.3102 -47.8403 48.8525
5.0257 -77.3782 27.1322
21.3798 -53.3570 48.1877
0.5151 -43.1887 40.3331
11.8065 -56.1116 52.4121
23.1683 -64.3774 74.3203
12.7517 -59.8475 67.4852
4.2036 -57.1777 11.8452
19.7090 -36.8495 37.7804
4.0743 -66.2365 15.0298
17.0726 -75.8956 46.9877
5.2733 -72.5358 45.0928
34.7259 -63.2633 54.7031
11.3030 -48.6692 49.5700
23.7521 -59.1393 72.6530
12.7200 -54.2647 52.2764
2.6833 -49.5424 14.1544
15.5041 -59.7198 11.0851
25.8789 -69.7664 48.1014
3.2072 -54.6633 12.3861
15.4906 -65.0058 13.5578
20.9660 -36.8368 24.4154
21.1888 -36.9113 37.2181
5.5322 -71.6278 57.7493
24.5273 -58.5796 49.5632
14.5590 -54.3901 57.5821
13.6373 -54.2647 52.1272
14.2157 -53.8088 9.5918
14.1420 -59.7858 66.5989
13.9125 -66.8475 73.0266
27.6228 -74.9852 71.6800
3.9800 -61.3511 49.1309
16.5559 -70.2251 15.3069
4.0858 -66.5243 48.1569
22.5249 -43.0018 41.2616
6.4267 -71.3703 55.6106
7.5275 -77.1027 38.1046
23.8178 -53.0698 47.1983
26.1950 -59.1148 50.3776
25.4726 -58.9932 46.2440
14.5546 -54.2647 52.0707
15.4647 -59.8426 66.5329
4.9533 -54.7278 11.3673
6.1797 -66.6065 66.5408
18.4194 -75.8281 42.8099
23.8459 -41.8316 15.3569
7.3430 -71.5700 54.6684
12.4591 -38.3457 40.1548
25.4016 -46.5554 13.9730
25.0402 -54.2910 46.3466
26.2357 -59.3300 72.3687
27.3273 -70.1374 73.1300
6.9682 -66.2141 49.6425
18.7802 -76.0901 49.2781
8.8925 -71.6546 53.1875
8.8829 -76.7528 42.0978
26.5578 -53.4451 46.5701
27.9809 -53.6716 13.8769
2.8205 -39.0542 21.7632
27.3621 -59.1808 45.5889
15.9587 -54.1533 63.0078
29.0235 -63.6428 44.5974
4.0773 -49.8694 46.9987
6.4263 -54.7934 10.6569
-0.0230 -58.2849 46.3143
4.8360 -70.3729 60.2028
34.6201 -53.8578 32.8488
27.0096 -65.2727 45.5544
32.4999 -64.1841 69.1781
7.3089 -64.3489 68.2701
29.2600 -77.2507 59.3204
-1.0775 -48.2492 16.9594
32.8948 -59.7650 53.7629
9.5180 -59.7102 53.8235
34.3365 -54.7622 37.4425
32.8386 -67.0229 53.0003
24.7322 -37.5380 33.7401
24.1908 -57.1331 46.5523
22.8040 -56.7751 70.2136
35.6135 -68.3907 61.2993
30.2550 -65.1851 22.1896
-0.1455 -64.8075 44.7457
32.7249 -63.3864 69.1263
-2.8596 -47.4459 40.0156
0.7624 -72.5864 22.2883
10.3794 -58.8514 53.8105
-1.2549 -54.4352 15.9363
17.1574 -36.4992 30.9428
16.5998 -36.4563 35.5220
27.4103 -62.1781 15.3273
0.2402 -62.0107 15.6234
30.5527 -72.2055 52.2350
23.7987 -56.0794 46.5779
4.4594 -68.6919 60.2078
27.3912 -64.3418 45.5520
7.2397 -62.5631 68.4874
35.1104 -58.5747 30.8633
10.9432 -58.1995 53.8103
14.6210 -35.8432 33.4502
10.2683 -35.9224 33.7916
26.2049 -73.5096 29.4023
29.2247 -42.5850 33.5189
33.1811 -50.5265 32.5454
32.8547 -62.3068 68.9485
7.9491 -61.5621 68.7467
26.9523 -45.2107 39.6521
-0.2047 -70.7757 21.2945
33.8419 -63.6305 53.5843
28.3338 -76.3359 66.8625
33.8993 -58.7729 61.7078
9.9995 -71.5941 51.9858
8.2794 -60.7403 68.4444
33.8298 -73.4267 59.7803
35.1954 -57.1219 31.2928
25.0792 -69.6058 45.4593
7.3830 -68.4048 67.4411
9.8460 -70.7670 51.8826
-0.1388 -41.1724 31.8781
27.5794 -53.4240 46.4832
-2.8571 -66.2470 36.6856
10.9333 -78.5358 27.2735
35.8002 -65.0971 61.3634
4.1438 -65.9991 60.0233
32.9348 -60.1415 68.2847
27.7596 -45.2854 17.0105
35.1619 -56.0994 30.8771
13.7418 -55.4429 53.6631
32.9340 -67.0832 67.7745
30.0517 -50.4880 16.5283
32.8152 -74.3262 67.3077
31.3667 -46.4328 27.9189
32.9589 -57.1817 61.4350
8.9147 -57.0291 61.1318
9.3811 -69.5967 52.0230
5.2789 -78.1281 28.1192
30.8622 -62.6142 21.9382
2.6149 -73.0487 37.1565
5.3981 -72.0248 59.1431
24.3215 -42.7493 40.4564
29.4439 -68.1808 22.7438
-0.8295 -68.1726 22.4123
26.5712 -67.7634 44.1954
3.6933 -38.0309 25.8836
34.3451 -62.2068 30.4949
16.9069 -76.1413 22.2580
8.3686 -61.6034 52.8931
-4.6954 -56.9172 36.3176
31.9690 -68.8473 52.0257
18.2745 -77.1473 29.2520
4.8983 -70.6423 59.0169
26.4656 -42.3632 17.6354
30.1597 -66.9012 23.3114
16.5739 -53.3242 53.1575
20.2089 -36.8279 26.3704
33.7452 -64.8857 67.5691
-3.7856 -49.0836 37.6680
34.2232 -72.6114 66.6532
-1.9897 -68.9856 28.4349
26.3436 -38.6422 33.7663
4.4893 -62.5789 60.5750
27.3465 -75.3034 51.0577
-3.6549 -59.3372 21.4868
-5.5871 -53.8533 30.2458
6.4105 -64.4603 67.4415
29.2808 -77.3330 58.3819
-3.3309 -47.8393 38.5953
34.9269 -59.7985 29.9505
9.0936 -60.2310 52.9154
8.8030 -66.9443 51.9260
23.3927 -75.4652 27.7168
5.3033 -61.1127 59.6132
-1.0108 -57.2091 45.5472
35.6778 -69.1348 58.4278
6.1691 -40.4805 40.2459
6.3362 -63.4332 67.5206
29.3364 -47.1884 38.8383
1.5500 -72.0234 20.3008
10.0324 -58.9043 52.8055
0.5845 -54.0612 14.5594
24.5916 -53.5708 63.0645
-4.5569 -49.6780 23.5384
25.5878 -74.4467 28.4907
29.2459 -72.9764 50.8832
32.2975 -56.3817 22.8304
8.7020 -39.3538 40.6407
34.0236 -62.9747 67.6217
34.6490 -70.0234 66.7452
16.8384 -77.1616 65.4679
33.1207 -62.1042 37.5202
11.2449 -72.6114 51.0585
-3.8441 -54.8617 20.1398
29.9417 -55.1353 45.5335
-1.0225 -55.5883 45.4707
36.0523 -67.6636 58.5609
4.3102 -67.6858 59.6268
-2.7637 -61.8699 21.1022
6.9871 -61.5329 67.6653
32.4305 -74.5893 58.6811
26.0611 -70.2411 19.9566
26.6857 -40.8431 26.5094
14.5231 -77.2982 36.6491
33.7509 -59.6131 36.9784
-4.1716 -48.9828 29.8278
29.7357 -61.5416 44.6847
-1.7901 -60.6750 43.6404
23.1340 -74.5868 36.4797
7.1067 -60.6693 67.1123
6.6580 -73.5328 57.7031
27.4543 -69.9156 21.0639
-0.0793 -69.8415 20.1599
34.1681 -68.1866 66.8769
6.6155 -68.1557 66.4325
25.5141 -39.5675 23.9439
33.2675 -51.9915 38.7910
31.0027 -46.8459 24.8384
-0.7543 -71.7089 26.7632
31.0624 -69.8098 51.0929
10.0677 -70.1908 51.0565
28.5209 -41.9483 32.0868
-0.6534 -54.2832 45.4088
33.7397 -59.8656 67.3407
18.2018 -59.9937 67.7650
8.2784 -59.8777 67.6213
34.0877 -71.8947 58.3093
13.3271 -55.3488 52.9170
22.7747 -55.5101 53.2950
8.2793 -63.5864 51.9922
-0.9062 -70.6270 27.3738
0.4686 -40.3968 31.0090
29.3308 -52.4736 45.5492
15.7405 -77.0400 48.9514
32.1725 -47.3378 31.7469
26.5522 -43.2400 16.7311
0.4322 -42.2224 38.5095
4.5213 -37.4534 24.3064
-3.9043 -50.8769 38.3020
-4.6382 -63.0041 29.5744
15.8710 -75.3688 19.9908
8.2451 -61.6034 51.9758
33.8218 -73.5265 66.0565
8.1984 -73.4989 64.9488
31.8229 -55.9116 61.4260
9.2137 -68.3789 51.0211
30.6332 -60.7417 20.5000
30.3195 -59.6629 44.6722
25.5572 -42.3460 16.2314
25.6101 -41.2499 39.1476
28.0219 -66.1900 43.7198
34.8199 -66.2352 65.9239
8.3685 -60.6860 51.9758
28.5309 -43.0061 26.6133
34.1341 -56.9594 37.6565
25.9443 -38.8412 31.8174
24.6698 -67.8769 73.9885
17.9765 -64.3370 13.5786
27.5259 -50.5300 46.3613
-3.8124 -62.9257 34.4031
20.4198 -76.1744 26.3143
4.4897 -63.1387 59.0994
13.6437 -75.7182 50.4997
21.4245 -74.4167 73.0517
4.6942 -68.7626 57.8307
24.3127 -40.0935 39.2247
22.3195 -73.0255 21.1078
-5.5060 -54.9321 34.5507
30.6730 -67.6916 28.3899
-4.4823 -51.5653 22.4691
23.3121 -75.4135 26.8906
1.5669 -74.6406 25.9272
13.5345 -74.9601 50.6297
25.2164 -73.6056 73.4320
-1.9529 -57.3337 44.5076
21.7985 -56.5056 68.3930
-4.9395 -50.3205 28.1587
-1.7836 -64.2673 21.1756
5.6441 -63.7914 66.2253
-2.8030 -46.3307 38.3436
28.7111 -54.7248 14.2949
8.7940 -66.9135 51.0662
24.6658 -65.5440 74.1017
31.1524 -49.1922 19.1386
-4.3686 -49.6828 22.3693
0.5999 -73.8090 26.0761
12.7347 -74.0285 50.2603
31.0918 -56.0994 44.7118
6.3500 -62.5494 67.3736
25.7105 -71.0444 41.9056
1.2534 -69.6928 43.0572
34.4798 -71.5331 67.1348
-4.5329 -53.8668 37.2062
-2.8126 -67.7591 29.2530
8.1423 -64.5117 51.0670
10.1145 -36.1480 32.3983
16.7481 -64.2856 73.6399
31.9439 -49.5048 24.8880
-3.9044 -48.5367 22.0042
27.3982 -77.1987 64.8186
25.3351 -48.1642 46.5127
34.3708 -59.7909 58.3164
11.8547 -72.6653 50.1045
30.9350 -54.6453 44.5928
33.4951 -50.8668 30.0563
30.0664 -62.8825 43.6785
22.5558 -75.3752 35.2445
0.6936 -70.8027 19.8611
6.4567 -69.3230 65.3333
-4.2453 -64.0693 28.8018
29.4089 -76.0184 65.8554
10.9711 -71.5970 50.1167
-2.0686 -55.7118 44.2873
32.9754 -73.5119 58.0675
35.1538 -57.1244 29.5775
26.5516 -69.1065 42.9596
34.7048 -68.7241 66.4030
-4.1542 -51.0482 37.2888
30.4797 -75.7866 64.4182
28.3052 -70.6888 27.7076
33.2736 -57.8010 59.8239
10.3912 -70.7767 50.1411
32.3233 -53.0909 22.9516
-3.4582 -66.1984 33.9308
4.4736 -64.8155 58.1949
32.9971 -49.1070 30.4123
34.2788 -60.1312 66.6587
27.2709 -58.1643 13.4398
2.8960 -56.6021 12.5544
29.7295 -70.2432 50.0096
9.7742 -69.8717 50.1471
35.9975 -66.1280 59.8566
13.3754 -76.5914 49.7854
30.9984 -60.7560 43.6963
8.1701 -58.8856 66.2088
10.4654 -56.1623 51.9437
2.8872 -50.7542 13.5565
30.4791 -61.2663 51.3903
8.0923 -63.1810 51.2839
24.9157 -75.4826 72.2524
26.7063 -41.6329 38.2787
34.0173 -54.8577 27.5658
-5.4681 -53.4880 28.7453
28.9169 -66.5703 19.7519
-1.0565 -65.6707 42.7678
5.4282 -66.4563 65.4624
-2.1388 -68.3338 26.8528
9.0402 -68.6033 50.0916
32.1391 -51.3716 22.9194
32.8942 -63.2989 36.4725
20.0583 -57.7521 67.1103
34.9210 -70.4059 57.7794
5.2257 -70.5032 57.4139
34.0214 -53.3550 29.6340
15.4430 -35.9702 27.8587
12.7558 -77.1884 56.8629
-3.6597 -48.2836 36.6974
-4.9293 -60.5994 27.2723
7.4093 -60.1129 50.8359
22.5280 -74.0119 42.1940
33.4599 -62.4358 35.7885
12.6479 -74.1108 49.6067
-1.7395 -44.1739 29.3331
-2.7806 -57.2339 43.1693
26.7495 -71.0139 34.8937
35.8272 -68.3275 57.4534
30.0276 -63.9407 42.7343
34.7719 -63.2454 66.2865
27.4501 -58.5227 51.8817
5.1422 -70.1220 61.9670
34.7251 -54.5606 35.5953
25.9174 -67.4344 73.6651
25.5631 -74.3329 26.2911
28.7097 -55.3177 67.3415
10.7421 -75.7217 55.7103
-5.4298 -58.4105 28.5642
14.8055 -77.4127 63.7494
-4.6150 -61.1005 32.2398
6.2262 -60.4556 58.1707
-2.0938 -68.5890 34.8028
22.1922 -54.5048 66.4217
36.0703 -67.1562 57.6736
4.4907 -66.8652 57.7693
22.8890 -75.5896 33.4116
34.7305 -61.6599 66.3276
31.8219 -73.8961 56.2261
29.7032 -45.4808 36.6366
31.5312 -66.4191 27.4839
-3.3363 -47.8657 21.2359
26.6994 -73.3244 26.8714
31.4804 -57.4692 20.7126
24.6178 -53.3472 66.6396
35.9473 -66.1900 57.4798
17.8694 -36.6396 37.7610
16.5800 -36.9073 38.3493
10.8771 -36.8441 38.2150
23.7141 -74.8199 34.0346
26.4832 -69.2879 19.0032
26.5971 -41.2224 20.9677
5.4038 -67.9196 64.6249
-4.3932 -51.6261 35.6608
-3.4248 -64.7359 25.6558
7.4488 -76.3558 40.9617
32.0256 -56.3547 43.6753
11.0362 -78.7654 25.1978
33.0472 -49.6703 28.5456
-3.8383 -48.1045 28.5688
8.7646 -45.4049 13.6499
6.2901 -72.5816 56.8874
0.2863 -68.6056 19.0069
27.1532 -68.9200 41.6852
3.4954 -38.2177 23.0584
25.3811 -64.1222 73.8337
29.8941 -45.7946 21.6068
33.0524 -74.4678 64.5362
25.7005 -57.7470 12.4130
-0.9070 -70.7535 25.6893
9.1152 -69.8414 49.1985
0.2169 -40.5297 29.3874
-1.7836 -52.1515 43.4360
17.9875 -76.2639 71.1939
34.3278 -59.3761 65.7513
5.8884 -71.3625 56.5228
34.6399 -54.8041 29.9582
-5.2043 -54.1946 27.0793
28.8421 -66.7303 41.7202
23.3096 -37.6995 23.4989
4.5946 -66.7057 63.3866
32.4763 -49.5914 35.8510
33.9106 -73.7433 64.3629
7.2185 -73.5253 62.9792
31.8156 -56.6893 59.0694
14.9771 -74.9342 71.4278
33.7452 -58.1297 65.7321
18.2661 -58.4969 66.1275
9.1229 -58.0146 65.6232
19.0260 -53.1136 50.9720
21.8623 -36.8429 22.6260
7.1012 -36.8184 22.5082
4.5721 -64.5267 63.7435
13.0514 -73.9238 71.3242
19.2087 -57.5739 66.0524
34.9198 -69.3248 56.7160
17.3717 -52.4227 51.1629
5.6629 -78.1797 32.3871
12.3496 -36.0391 22.7367
35.1861 -64.6704 64.8395
12.8186 -77.1979 55.6445
34.6960 -55.5434 36.0704
29.8326 -68.8494 26.5643
28.0161 -54.2647 58.3971
32.2254 -57.7835 43.0909
-1.9666 -64.5860 41.5059
4.5340 -63.4419 63.4020
29.0951 -77.1075 55.8371
-2.9763 -46.5344 37.1116
7.1907 -58.6463 50.4706
34.6015 -72.4250 64.2415
17.0354 -53.3884 57.3251
28.1926 -65.5942 49.3898
29.0457 -64.1206 72.0150
11.9962 -66.2041 72.1195
-3.6923 -49.7380 20.2470
-1.0290 -49.5224 43.3520
31.1365 -72.6163 71.3335
35.7511 -67.4295 56.4745
-5.2611 -51.5550 27.7954
35.0329 -63.0017 64.8350
5.3415 -62.5445 65.1408
34.8482 -58.4652 28.5647
25.7927 -71.2698 40.9009
31.4209 -66.3857 26.3693
14.8752 -35.9597 30.6121
13.8927 -77.1789 62.8950
24.6611 -71.7140 47.9559
-0.6202 -65.1709 18.6192
5.3636 -61.4957 64.2175
-1.1898 -43.4732 36.3786
35.2059 -70.0163 63.9638
5.1492 -68.6211 63.5194
-0.1082 -72.6875 24.9678
33.8097 -58.8168 58.3436
22.9082 -53.3768 65.7264
17.5436 -36.6154 36.9044
29.5127 -63.1808 19.3991
34.7196 -60.6810 65.5309
26.4747 -68.4828 18.1989
35.3905 -67.5147 64.6082
32.7821 -64.3371 26.7402
28.4031 -63.9213 49.4318
6.2624 -75.9305 39.8119
34.6591 -57.9492 34.8556
32.9896 -57.8378 58.4622
4.9618 -65.8231 56.5810
31.8481 -59.9426 42.4775
24.9273 -73.3512 34.1503
0.1674 -71.7965 32.7203
35.0020 -56.1733 29.4623
20.4799 -54.5683 49.8327
6.5398 -56.3736 49.9134
24.5513 -38.5567 22.0792
28.3524 -62.5415 49.4541
-1.9645 -53.1957 43.3633
14.5471 -78.0586 24.4615
9.0648 -78.4442 25.3180
35.6325 -64.9666 56.7748
5.2296 -63.8098 56.6484
14.3232 -35.3693 37.1718
14.6506 -35.5195 37.3148
-3.1733 -57.5072 41.8761
0.8362 -67.4342 17.9845
20.1438 -54.1032 50.5347
-0.7017 -43.4966 21.2118
31.0959 -69.6890 71.3353
-3.5731 -51.3036 19.3571
30.9869 -51.6851 43.4319
-2.9013 -46.4543 29.2626
13.0155 -74.9788 70.0588
30.8359 -58.2296 19.0046
27.5607 -41.3846 36.8692
-1.9213 -66.1463 40.2322
26.9992 -78.1154 54.7278
-4.1419 -62.6482 25.7763
29.5332 -69.1284 25.2094
27.3388 -55.0025 57.3795
27.0538 -68.1011 48.4137
30.1502 -66.1170 71.4266
35.1764 -63.0754 58.2902
5.3882 -61.9973 57.7737
31.0766 -74.4435 70.4503
-0.5530 -70.8151 32.0806
5.8759 -69.1709 55.5992
28.1854 -66.5497 18.4019
0.5169 -65.8674 17.6076
5.5097 -78.1860 31.8036
11.8741 -35.9270 21.8118
31.7218 -47.8433 35.4638
27.3169 -67.2539 48.5017
35.1992 -67.3062 55.5774
31.0598 -46.5403 35.5056
24.1632 -58.8514 49.2238
0.2445 -42.3500 20.7997
27.3853 -66.1957 48.4308
34.6903 -60.7026 57.1611
11.8192 -73.1504 47.3577
30.2544 -44.8618 27.0551
32.0834 -72.6394 70.5538
-3.0083 -55.9938 42.6280
6.1384 -38.6465 35.5791
33.4339 -50.9773 28.7445
18.9237 -50.6361 50.1136
-2.2835 -62.6849 41.7161
35.1353 -63.2947 63.9973
10.8941 -75.5626 54.9386
23.5479 -57.7317 49.0250
23.7652 -53.8024 11.5960
34.4223 -53.3315 35.1868
-5.1134 -53.0445 34.0088
30.1729 -64.3571 71.3189
10.9064 -64.4979 71.1428
1.1830 -73.5788 23.3882
34.1863 -59.7687 56.5625
9.9405 -71.5703 48.2775
32.1973 -71.7603 70.5396
-3.3797 -57.2415 19.3159
32.6407 -55.7883 42.1539
-0.9593 -63.7242 17.9901
10.7994 -50.1966 50.4436
23.7829 -75.4010 31.9146
22.7953 -56.6548 49.7212
32.2676 -64.4016 25.4104
7.9617 -70.9441 47.7988
32.1311 -70.4082 70.4022
9.9619 -71.2325 70.1619
-3.4637 -53.6980 18.9547
29.9597 -66.7368 35.3610
-3.5733 -66.3478 31.0717
21.1578 -53.3973 64.7577
35.4664 -66.1900 55.6451
16.3405 -36.6120 37.4895
-1.9448 -61.7707 18.5307
-2.9727 -59.7860 40.6540
24.6802 -74.6428 32.1328
5.4300 -61.0201 63.4660
34.5723 -57.0704 27.5310
24.0553 -68.9609 16.9443
27.0729 -69.3698 40.7791
-2.8421 -47.5307 19.8676
-0.6519 -46.5778 42.4650
-0.5320 -71.7146 23.9753
31.4716 -65.8762 32.4367
35.3462 -65.0070 55.6130
14.8709 -35.8372 36.9516
10.8926 -36.0884 36.3738
18.3899 -77.4200 69.4645
-4.6649 -56.6663 24.1448
24.6043 -38.8916 20.7937
-3.9885 -50.2926 33.7647
27.3604 -62.5270 48.3498
18.3289 -61.3565 70.4991
0.7629 -44.8342 42.4286
-0.6600 -70.7126 22.7694
32.0512 -52.7249 42.1934
5.7817 -64.4532 55.5076
14.1266 -77.0007 44.8740
12.7206 -76.5533 47.9873
31.7905 -47.8232 26.8010
32.8336 -49.9269 34.4754
-3.3135 -47.8635 33.9002
30.0676 -46.4004 20.2083
6.4749 -73.1525 62.1413
-5.5787 -56.2974 33.8815
29.5827 -55.1870 58.3740
25.5471 -39.5777 27.5932
1.4234 -39.5831 27.7823
31.1710 -67.4648 70.5229
7.4971 -76.0705 22.5105
35.0765 -63.4067 55.7432
6.3365 -63.4255 55.2210
33.7928 -57.8841 64.5393
7.6935 -58.5632 64.5389
35.6322 -65.7108 63.3893
20.6827 -60.1386 71.4037
-0.8485 -44.3971 19.8538
29.3175 -69.1428 24.1086
28.3645 -55.0930 56.4374
14.5445 -55.1453 56.5362
23.9046 -38.0968 29.6832
31.4173 -50.9501 19.0250
-2.7174 -50.2404 41.4587
32.6768 -63.8556 35.9123
-2.0971 -60.0109 17.9010
9.9136 -56.9388 63.8795
8.0707 -70.1741 53.7750
20.0527 -52.4254 49.2470
14.2758 -36.1589 20.6289
34.8984 -55.7146 33.8011
14.9643 -54.5112 56.3976
19.3212 -74.2195 45.6643
32.5333 -73.5287 69.4052
-3.9248 -57.4036 38.7811
33.7851 -68.5164 54.7676
27.5397 -40.1438 35.4178
4.1515 -39.7175 34.4462
33.4937 -54.1534 25.7761
27.6026 -65.3066 16.8184
30.6615 -64.2987 40.6810
3.5232 -77.0536 30.1174
10.4725 -45.7216 12.8465
-2.8523 -46.5270 34.6488
33.3382 -60.0267 25.1281
24.2900 -58.8947 48.3542
-5.6531 -54.4485 33.3187
30.5478 -67.3329 24.9988
26.8055 -66.1900 47.3891
1.9931 -64.2890 47.4973
32.9781 -72.6629 69.4175
28.3275 -65.0890 17.7692
-3.1350 -60.8508 37.6803
2.3642 -75.7860 30.4325
4.7459 -62.4889 63.3097
29.0613 -74.7261 52.1377
31.2030 -65.4284 24.1965
26.8617 -65.2727 47.3891
11.8563 -35.7657 31.8489
31.2233 -64.3298 70.4142
-2.9137 -48.5028 19.0471
-2.0708 -48.4963 41.8994
34.1949 -62.3164 32.3492
-3.7145 -54.5868 39.7672
-2.9621 -67.7408 33.5953
-5.0338 -50.9178 25.5256
23.7563 -75.6048 30.9115
-1.1197 -43.2451 34.6348
33.9376 -58.6860 26.0117
2.0784 -40.7375 19.8552
-2.4837 -65.9198 23.9854
26.7947 -64.3554 47.3891
31.1331 -63.4404 70.5082
30.0349 -47.0153 19.0609
0.0451 -72.4741 23.6225
22.8811 -71.8413 46.5100
28.2700 -42.3324 29.7069
-2.8549 -54.6950 17.7430
34.7539 -65.9239 54.8110
9.9984 -48.7808 49.1712
25.1493 -74.4461 30.8771
34.8952 -62.1087 63.1214
21.9373 -55.9357 48.3431
24.6280 -39.3877 19.6482
35.7811 -67.2531 62.1441
4.4027 -67.6166 62.1163
34.0643 -52.3121 34.5814
32.6038 -63.4695 25.2806
-3.5483 -62.9616 23.9464
26.8925 -63.4380 47.3891
31.4541 -53.2512 18.8535
17.7537 -77.7674 68.7441
25.5736 -73.9820 30.9217
7.7169 -72.6581 54.6610
28.7533 -67.8687 37.6334
6.4432 -38.4933 19.3232
26.8547 -62.5207 47.3891
1.8437 -62.2537 47.7412
-1.9631 -46.6900 18.9010
32.9651 -74.8162 61.6737
11.7620 -56.9691 55.5335
13.8090 -35.2919 35.6645
13.4742 -35.2450 35.2645
-1.1076 -61.7435 16.9859
-0.1016 -71.8392 31.3828
34.3545 -59.2725 64.8064
29.6928 -43.5859 34.4369
-0.2420 -42.2569 36.5953
25.0722 -66.6478 15.9701
4.1191 -66.1262 61.4938
26.5340 -61.4686 47.4071
22.7977 -74.5506 39.3698
33.8437 -73.8456 62.5289
14.0805 -55.6667 55.5112
24.3698 -70.6374 46.4364
32.5010 -65.1210 30.4156
11.9002 -76.3099 45.9574
-1.6844 -44.5604 26.9945
-1.8501 -59.1664 17.2060
0.1878 -41.5057 34.2449
2.6647 -66.7511 16.1606
4.6565 -54.4127 48.0252
26.0915 -60.6860 47.3891
28.1785 -44.5414 18.5942
34.2754 -72.6671 61.2540
5.8177 -72.6114 61.1491
-5.7335 -56.4448 32.8028
14.7221 -54.8446 55.5528
11.7685 -75.1861 45.6875
31.9853 -74.6267 68.5621
28.2976 -40.8780 34.4982
5.8351 -51.5473 48.2408
-3.2384 -65.3894 35.8936
4.2208 -63.6643 62.0215
23.7876 -77.2460 52.9614
13.9590 -76.8899 52.8249
1.2770 -42.3910 18.9284
5.2295 -71.2727 61.0538
16.9033 -42.1714 42.1443
34.9896 -55.1820 32.7117
-1.2704 -68.4774 24.0273
15.1313 -54.4199 55.0209
30.9319 -50.0308 18.0873
34.4866 -61.6034 54.7278
9.4949 -73.5301 67.7503
27.3580 -39.7056 34.5344
31.9490 -47.2637 34.1378
-4.2261 -60.2935 23.7829
22.0220 -58.6603 71.1965
34.9213 -70.6269 60.8127
16.9141 -53.4513 54.8050
26.4604 -66.4862 46.3766
1.1787 -65.6958 46.0175
6.0509 -36.9050 24.1317
34.1849 -60.6860 54.7278
-2.0353 -56.4151 16.8018
-3.9907 -56.1532 39.1363
29.6342 -68.5849 30.8412
23.8564 -57.9647 47.4101
26.7267 -70.0552 38.1653
26.7794 -42.0025 19.1834
-5.1011 -52.2465 31.5029
26.7304 -65.2727 46.4718
29.7676 -76.7789 60.6992
-2.0524 -48.2297 17.9388
-2.7488 -48.1637 40.7313
33.7910 -66.8239 54.0310
24.7246 -49.6261 48.4567
31.0002 -62.1344 42.5564
30.5800 -74.0817 54.2806
-5.0659 -58.1630 26.1168
22.8129 -56.1481 47.3707
25.5105 -40.3164 19.5459
4.0195 -40.0722 18.9530
4.4861 -68.6654 61.1415
33.8079 -51.9892 32.7886
26.8605 -64.3554 46.4718
33.6851 -59.6750 54.9514
9.9674 -58.7022 54.6846
23.5410 -71.5939 45.5387
-2.0467 -54.9093 16.6836
32.8519 -53.8722 41.2143
8.9570 -36.7827 31.9701
16.3964 -77.8368 67.4282
32.1516 -61.3375 40.4411
25.4943 -74.3787 29.8777
5.1953 -61.2080 61.9233
11.1247 -52.3551 9.7313
27.1194 -63.4380 46.4718
20.8945 -76.1967 36.3944
34.8969 -59.5619 31.9084
-0.0558 -71.5762 22.0966
24.4507 -70.7609 45.0941
16.9699 -77.6339 67.6727
28.3153 -61.6343 16.2599
8.8498 -48.1365 48.3759
0.9275 -73.9666 30.3904
29.9116 -43.7475 33.2922
33.8328 -56.4581 25.7933
22.6749 -55.1746 47.1568
0.6295 -62.2902 46.5454
25.5643 -45.1279 40.9483
-1.2486 -45.2840 40.5731
-5.1214 -59.1832 31.9531
8.4378 -69.4790 68.4863
32.6275 -51.8859 40.5244
11.3758 -76.7458 44.9122
-4.5415 -49.4591 25.3386
32.6138 -54.4887 23.6933
28.7147 -67.4183 40.3855
11.8971 -37.6438 18.8923
35.9095 -66.1626 61.6309
23.7979 -44.1383 41.2076
13.7715 -55.8725 54.5186
30.9428 -52.3031 17.4966
11.8041 -76.1085 45.1213
32.7080 -58.2810 40.4286
27.6349 -71.1068 29.9814
28.3798 -41.1216 33.6839
21.7988 -65.8715 14.8132
32.4610 -48.7214 34.2895
-3.4404 -48.0384 31.7662
3.4367 -74.7531 35.8228
34.5662 -71.7613 59.5062
5.3226 -71.9680 60.2157
35.1550 -56.0927 31.8886
29.1441 -68.7930 22.7595
2.6666 -38.8449 24.1522
31.9567 -67.0863 68.8677
30.3986 -52.0238 16.5657
7.7550 -62.5207 53.8105
17.3389 -75.3566 44.6818
-1.2640 -56.7378 16.0868
8.6787 -68.7261 52.8405
32.7959 -52.7333 24.8093
4.0981 -64.3693 60.6372
-5.8387 -55.5855 31.4527
26.4419 -66.6847 45.4475
22.5136 -37.8266 26.8568
-3.4035 -49.7247 39.4675
19.0681 -74.5948 44.6732
33.2104 -73.6569 68.0038
29.7249 -57.3691 16.0804
9.6530 -56.6805 62.5410
32.6556 -68.8940 53.2046
31.2188 -64.6722 38.3452
4.2137 -63.4333 60.7045
14.2538 -76.2558 51.9373
34.9666 -54.9729 31.3975
32.6883 -66.0206 68.1283
-3.1506 -48.7607 40.0504
-4.4488 -63.3935 30.8784
8.8383 -60.4017 53.8712
33.8556 -72.6829 67.8438
-1.8119 -44.7616 24.7821
11.8245 -55.2579 62.0655
33.1261 -67.8816 53.5153
32.5922 -50.8971 25.6942
-4.9628 -51.7561 24.4949
26.3498 -50.5812 47.3600
20.9491 -76.1734 27.9911
28.3350 -75.6515 52.1630
31.1559 -45.6416 33.3774
6.5947 -79.0187 28.1234
26.5631 -50.5992 13.5985
18.4186 -53.0556 52.7158
16.2636 -76.8391 39.8365
31.8589 -75.4897 61.5177
24.6656 -74.7829 26.3000
14.0099 -54.8569 53.0922
6.9466 -68.5792 15.9981
9.9924 -39.3336 41.0306
26.4317 -77.3136 63.8637
6.6276 -78.0943 29.3380
21.9061 -53.0253 64.8325
28.2025 -46.2724 39.1956
30.9116 -55.1232 63.8241
23.9547 -38.7093 27.2633
-2.3753 -45.1742 32.0839
13.0963 -56.1807 53.5717
9.5774 -40.4359 41.8788
27.1655 -53.9528 64.8794
26.4800 -77.5105 64.8185
18.1563 -76.4057 40.7778
18.8170 -53.2133 54.6341
25.6518 -39.3066 29.1499
16.9699 -59.6530 66.6503
13.6373 -56.6324 54.7278
13.5446 -77.6216 54.6764
33.9762 -60.2406 26.6241
26.2507 -77.1195 65.1808
26.1123 -53.8448 65.7987
18.9788 -36.5868 29.7747
8.9855 -58.8500 55.6342
9.0506 -74.9203 55.6451
1.5774 -40.1244 32.2088
17.6860 -77.5061 68.0618
17.2570 -60.6469 67.9724
9.9858 -36.1669 30.9569
27.4735 -77.3771 53.7094
13.6373 -56.3724 55.6451
13.6373 -77.7883 55.6451
23.7745 -45.0291 41.8834
9.8485 -76.6748 43.2788
33.9170 -62.4017 28.2786
26.4571 -54.2023 67.3869
6.1635 -77.9579 32.0476
32.9161 -56.9823 40.8961
25.6009 -41.5124 17.4526
24.6652 -74.8962 30.2115
17.3067 -60.9992 68.4878
13.6555 -77.4065 56.5077
14.2744 -54.8627 56.9557
8.1216 -73.8187 19.3266
21.1582 -76.1941 30.6062
12.7454 -61.2752 69.9498
6.1489 -77.9194 33.1266
30.2574 -48.8670 17.7125
16.6638 -74.3875 18.8679
2.6350 -72.5816 20.0948
18.6502 -75.4728 43.7909
30.8556 -56.9856 55.3596
12.7527 -36.7285 19.9092
27.4892 -67.4712 43.0870
31.0436 -57.3642 67.9960
24.6453 -38.0426 30.8771
24.6453 -75.0168 30.8771
16.8658 -61.0934 68.8381
17.3067 -77.6183 69.4052
27.5233 -77.7505 55.4521
21.3378 -38.0083 19.0360
13.4225 -54.6213 58.0590
6.6246 -74.5018 20.7832
23.7974 -71.9373 44.1176
26.5239 -55.0985 68.5086
12.7553 -62.0619 70.9984
6.2073 -77.7720 34.1987
15.6403 -36.1574 35.9339
18.4033 -53.0663 59.5488
11.8026 -36.2560 20.7864
12.2459 -45.3351 45.7893
24.3437 -37.8464 31.9547
27.4578 -77.6731 56.5023
20.9760 -37.2106 19.8690
5.9797 -74.9840 21.8732
24.7517 -46.9621 44.7315
10.0192 -46.8224 47.6121
33.8591 -52.4086 31.5831
26.2234 -56.2845 70.0947
2.7086 -73.7567 21.7650
11.8026 -35.7037 21.7037
31.0667 -74.9065 69.4052
20.5672 -36.8742 20.8340
7.6510 -38.0766 37.3979
6.2986 -77.6793 35.4638
19.9697 -73.7875 46.4769
19.3185 -46.9367 47.2798
14.2305 -77.7968 29.6528
2.3970 -40.9694 37.6212
32.0013 -74.4731 57.4566
28.9471 -60.5378 45.2106
10.8728 -35.8048 35.4777
27.2218 -54.4767 58.8478
14.1839 -53.9212 60.7623
23.7280 -71.2869 46.4718
9.9646 -47.5876 48.3421
6.4257 -77.0275 36.8470
19.5010 -74.6327 47.3431
4.5100 -62.5595 62.0641
31.0174 -73.5135 71.1931
27.0789 -77.6366 59.2093
-2.8640 -62.8732 37.9302
13.6373 -53.9786 61.1491
23.7557 -47.7589 47.3974
17.3685 -49.2321 10.8327
26.4819 -75.3621 72.1096
19.0701 -76.8623 35.4799
19.7256 -75.1303 48.4466
31.3777 -75.5636 58.5394
17.6402 -53.2177 62.0854
11.8026 -78.6654 24.4557
14.1134 -77.1341 47.5800
24.6545 -37.7386 35.4896
10.8853 -36.4181 37.2984
27.3973 -77.7493 60.2318
20.9832 -36.5676 23.5312
13.5257 -76.9184 62.2914
23.8099 -48.6075 48.4697
23.5111 -57.9322 48.3085
9.2067 -50.7718 49.8930
20.0587 -76.6024 36.3811
16.5182 -76.9056 23.7293
28.4729 -68.8998 34.5635
15.3388 -36.2693 37.4921
31.1504 -75.9453 59.6770
2.3739 -41.4534 39.0715
11.5887 -78.6171 25.5188
13.9090 -77.1361 48.2807
13.8372 -48.7025 50.1363
7.6419 -65.1400 13.4200
25.4684 -71.7341 37.6737
27.4305 -53.9673 61.9798
27.0738 -77.4285 61.0381
13.9938 -54.8999 62.9821
7.3628 -77.8623 25.7412
23.7280 -58.3383 49.2238
24.1741 -74.5108 49.1325
8.9865 -53.0793 50.7169
19.9627 -76.6088 37.2985
20.0587 -36.6020 37.2984
16.3893 -77.5960 25.3731
8.8157 -57.7911 64.6919
2.6279 -38.7346 27.6340
2.7885 -75.7156 26.7558
19.6868 -53.6870 50.0375
15.4720 -36.3657 38.2158
1.5478 -42.3088 40.0964
17.5553 -53.3776 62.9208
14.1796 -75.6316 51.2917
21.3671 -37.2160 25.7495
8.4384 -36.7522 29.6285
7.4658 -79.0033 27.3850
24.0591 -57.2820 50.9270
24.0917 -75.5697 49.8862
34.0958 -52.9528 36.7907
19.5649 -76.6564 38.3877
18.2018 -77.5070 58.2524
8.4787 -74.3934 64.1224
19.5390 -53.5710 50.8912
17.3012 -76.8705 63.0161
27.2231 -60.5587 49.7927
14.8915 -77.2465 51.3279
25.5025 -39.8760 38.1139
10.1290 -38.4648 40.2134
26.7758 -53.8832 63.5230
20.0587 -76.5882 39.1331
5.7009 -75.4731 40.8950
3.5277 -38.1358 28.7768
32.1930 -55.9111 63.5123
25.5730 -39.7065 26.1346
28.3604 -74.4946 51.0499
22.6770 -42.2071 14.6979
14.5940 -77.1838 52.9153
14.8453 -54.1998 52.9542
7.9972 -78.1804 29.4269
33.6919 -53.3450 38.6980
22.8178 -53.1547 64.9383
9.0066 -58.7672 66.8624
21.4934 -77.3661 52.6773
19.2389 -53.2919 53.0783
1.8387 -44.7275 43.2023
25.5834 -74.4579 27.2397
22.0030 -40.9662 16.0250
14.3358 -55.0730 54.4611
24.1913 -72.9192 40.2814
19.9093 -76.0239 41.0695
2.1406 -39.4267 31.1116
-0.4504 -44.5433 18.9874
0.9484 -46.2107 43.5067
31.9111 -56.0619 65.2768
-2.0137 -69.0420 30.2813
10.7015 -77.3811 41.8640
9.5586 -42.4209 43.1962
27.3973 -77.1450 65.7358
20.7899 -36.9176 29.9530
12.3998 -75.8164 67.3295
24.2691 -55.4532 55.9793
17.6187 -72.6821 17.0913
10.2769 -57.7791 55.6649
3.4958 -71.8446 18.8421
18.4099 -77.5297 53.4946
31.9966 -75.0250 65.3863
21.9387 -39.5437 17.5788
10.1181 -43.3840 43.9773
27.1850 -76.7651 66.3623
27.4320 -54.1913 66.6327
14.8558 -77.0418 68.5012
6.4870 -77.8996 30.5285
17.3001 -73.5383 18.0063
4.4049 -38.5382 20.4681
8.7961 -61.5953 69.4368
13.7040 -44.1293 44.2051
31.7523 -56.6529 66.5319
28.3524 -77.2498 54.6889
11.5463 -76.4751 45.0362
10.9080 -76.2827 44.1768
10.4705 -44.7888 45.3627
28.0562 -54.7849 66.9548
24.4749 -77.5858 56.1837
18.2240 -77.9083 69.4052
28.4661 -55.7190 55.9021
28.3147 -77.6389 55.6451
9.6894 -36.7993 20.7942
11.3802 -76.9775 44.6119
26.8714 -76.6021 67.1188
13.9991 -61.4748 69.6795
23.5101 -54.8587 56.8633
11.0671 -76.0793 57.6339
1.8964 -74.4406 32.6949
12.7200 -36.0810 20.7864
15.5559 -76.4938 44.8484
25.2099 -38.3027 31.9392
25.8303 -72.7183 32.4478
18.2265 -77.1677 70.3151
28.3147 -77.8488 56.5625
14.5754 -54.0812 58.7243
27.6265 -76.0862 69.4602
6.9675 -77.7940 34.8387
9.3919 -56.8091 59.3338
12.4236 -36.0431 21.7088
14.9286 -46.5684 46.7054
31.8880 -74.3486 69.3411
31.8689 -65.2551 69.3944
19.0548 -61.7620 71.9942
28.3307 -77.5520 57.4648
21.8933 -37.1416 20.7864
8.6300 -36.4612 23.3138
27.3931 -75.7905 70.4119
14.1661 -62.8900 72.0786
15.8839 -36.0729 21.9961
4.8047 -51.0413 47.6981
22.7660 -57.8895 71.3791
12.1762 -77.3935 22.4240
-0.8937 -69.5149 23.9185
31.9080 -73.5256 70.3223
25.5433 -38.0054 33.6588
18.4247 -62.4715 72.7836
27.9340 -77.5822 58.1942
28.2601 -54.3050 58.6441
21.9259 -37.1095 21.6823
10.8853 -72.0180 48.3064
26.7074 -75.5995 71.2034
21.0802 -76.2128 33.9913
7.1147 -77.4296 36.4394
26.5232 -71.0378 21.7846
12.2304 -35.6220 36.4328
28.3147 -77.6805 59.3145
10.8874 -71.6893 49.2224
20.2295 -36.7108 36.1749
20.2928 -74.6965 48.3009
6.8714 -62.0987 50.3493
12.8044 -78.5075 24.3858
-1.1682 -69.7330 25.8668
26.1993 -38.7788 35.4380
28.3068 -54.0238 60.2385
28.3147 -77.4905 60.2318
14.5129 -76.8915 61.6199
14.5330 -53.9256 62.1014
8.9260 -36.5002 27.3734
22.9070 -53.5633 60.4967
20.0842 -54.1777 49.2348
15.4070 -62.6667 12.0452
32.9632 -74.5924 60.2235
12.6684 -78.5573 25.3428
-0.7357 -43.2468 26.3536
28.2071 -77.2786 60.9455
14.5791 -77.1381 63.0678
24.7020 -59.0276 48.9942
10.8768 -51.4956 51.2459
6.3322 -39.5909 38.6918
19.6543 -53.1185 63.1579
13.8133 -78.2998 26.1977
10.9922 -37.4772 39.1170
-2.0297 -46.8175 41.0059
28.3147 -53.8708 62.0665
14.5546 -77.8846 63.9011
24.8998 -57.9643 50.7097
9.9680 -57.2979 64.8185
4.4154 -77.4478 28.1354
19.5610 -53.3640 63.9421
16.1283 -53.1562 52.1906
28.3414 -54.0267 62.6899
21.8933 -75.7384 26.2904
9.5509 -36.3797 29.3820
20.7926 -76.2478 38.7511
6.7877 -40.7202 41.0877
9.8673 -58.1301 66.4072
10.0431 -75.1695 65.1861
3.1787 -76.5831 28.6698
20.6621 -54.1440 52.5931
13.1684 -69.8090 15.3206
33.1142 -56.8200 63.7025
28.6236 -60.7330 50.7291
-0.7478 -41.9549 30.3100
15.8869 -77.3378 50.9502
15.4347 -53.8107 53.1243
28.3244 -53.8598 63.9362
21.5053 -37.2811 27.5763
21.9532 -75.8906 27.2831
14.5546 -77.5655 65.7358
10.8471 -75.1237 54.1072
3.2409 -41.7125 18.0971
20.9760 -75.9129 40.0504
7.0834 -41.8817 42.4456
-0.9024 -70.5042 28.2770
15.8650 -53.8382 54.3648
28.3079 -53.9327 64.8299
28.2992 -76.9654 63.9805
24.6774 -76.9282 52.1863
-5.6670 -57.4306 30.6605
11.1096 -57.8559 54.7338
5.4119 -71.2487 18.1885
23.7268 -52.9268 65.7285
24.6540 -77.4700 54.4025
33.0348 -56.9709 65.2705
19.6140 -76.8456 66.2445
28.7965 -58.3256 52.6163
10.7469 -38.7462 17.7681
28.2976 -54.2202 65.7701
15.8161 -78.1506 67.1139
20.9930 -75.5368 41.4223
6.6344 -43.2483 43.6789
7.1900 -75.4474 43.2091
9.2631 -60.5382 68.6933
27.4724 -64.1418 16.0535
14.3452 -73.3004 17.5881
19.3002 -59.2969 67.8682
22.8137 -40.3140 16.8845
25.2697 -45.4943 41.6547
20.4906 -38.5632 18.2958
11.6596 -56.2454 56.9548
5.5280 -73.4984 19.9909
14.1534 -74.5425 18.7917
16.4077 -76.3200 43.5222
33.0041 -57.9119 66.7244
18.9385 -77.0924 68.1993
-0.9660 -42.3675 32.5838
29.2320 -56.3609 54.7278
29.3091 -76.0806 54.4817
22.9090 -70.7807 17.7983
15.7595 -53.8474 57.2987
11.7979 -76.2869 44.3471
20.1287 -75.2689 43.0034
32.1598 -47.4142 29.3610
24.5829 -76.8158 66.0853
15.9198 -77.7053 28.5697
8.6118 -65.5107 69.0813
14.3007 -75.3965 19.7519
16.6728 -75.9777 44.5624
32.9721 -58.8433 67.5790
2.0637 -51.4424 46.6334
26.3900 -39.5101 30.9448
18.9633 -77.0745 69.7739
18.2784 -61.0923 69.4625
12.6741 -35.4589 35.2824
11.3969 -77.1749 43.8693
28.2161 -76.2424 68.4960
27.8853 -56.1604 69.0155
14.2015 -62.1721 70.9143
21.9568 -73.7352 43.4604
7.8234 -72.7004 46.5023
23.7463 -56.1488 70.1771
27.5992 -67.8864 18.6305
13.6244 -36.3442 20.5330
29.8107 -50.5750 44.1919
16.7304 -75.8872 45.6016
0.9084 -57.2129 46.9591
-0.2492 -70.6442 34.1949
29.2320 -55.5421 56.5625
-4.7114 -50.5795 23.5378
11.3709 -46.6737 47.5390
28.3147 -76.1251 69.4052
22.7176 -37.1401 35.3152
22.0116 -75.9759 32.3759
7.2102 -37.8210 34.0993
24.4024 -54.8289 58.0272
17.9944 -74.5262 19.7158
4.5116 -37.7244 22.0352
23.1959 -76.6107 69.5622
27.5929 -69.0091 19.8082
13.3650 -36.0909 21.4652
6.2617 -73.5255 60.0277
0.0615 -42.3872 25.4611
29.2956 -77.3071 57.4976
9.0506 -36.2077 22.6211
28.3147 -75.8942 70.3225
19.7832 -73.5127 45.5254
13.8518 -52.2652 9.7244
23.7077 -57.0140 71.2429
23.7263 -76.5079 71.2505
19.8273 -53.0136 60.3481
14.0187 -76.4561 21.1469
6.6149 -59.1673 60.3919
6.3421 -73.5214 61.0660
10.2994 -49.5899 10.8215
23.4108 -37.6380 21.8122
12.0968 -72.6037 48.2989
5.4566 -51.6755 11.9837
28.1548 -75.3699 70.8915
21.9233 -76.0315 33.6554
7.9517 -77.7102 35.3610
11.0755 -55.5537 61.3620
21.9340 -72.6669 46.5756
14.3437 -48.0640 10.9919
18.1914 -77.0097 36.2848
16.2424 -76.5659 47.9717
19.1319 -62.5173 73.0884
22.8107 -37.3797 22.6211
14.5925 -76.9844 59.8423
11.8026 -72.3322 49.2238
5.7992 -62.5890 12.9236
31.9527 -52.5932 21.2985
10.8853 -55.7346 62.0665
31.0673 -45.9073 34.6213
33.9012 -58.8194 59.4777
27.4762 -41.9560 25.3469
11.7837 -77.6836 32.0804
25.5309 -60.2380 48.2992
21.8450 -37.1084 36.6564
21.8564 -75.7387 35.7720
8.5506 -37.9405 38.6473
3.6244 -75.8652 25.8558
20.9760 -55.6246 49.2238
13.6373 -78.6895 25.3731
-0.1475 -72.8197 26.5897
26.5569 -39.5845 36.4280
9.0505 -79.0426 26.2826
26.3336 -73.5013 49.5243
21.9504 -75.3886 38.8888
30.9971 -47.7565 36.6808
17.3218 -37.0385 38.3514
6.2638 -59.9766 64.2419
29.3702 -54.3568 62.3575
22.3750 -37.7942 25.7070
6.0088 -66.4706 14.4585
10.9138 -56.7836 64.5010
21.3829 -76.9441 51.1568
14.1179 -66.9743 14.3345
20.0587 -53.0306 63.9011
6.2019 -60.5400 65.2019
-0.1005 -41.1844 28.6068
30.0297 -68.4280 50.0072
23.6654 -44.2080 13.4819
16.8877 -52.8873 52.1732
29.0339 -76.8012 61.9776
23.0194 -75.3506 26.1453
15.9160 -77.0822 63.9520
11.8635 -56.9240 53.0183
18.4720 -76.8441 26.6423
10.9659 -57.5290 65.6250
4.4640 -77.7640 29.0424
15.1481 -69.8626 15.0872
31.0448 -49.1564 39.8810
6.1845 -61.5439 66.3885
-0.1771 -40.9942 30.6306
-0.0930 -72.7140 28.6461
28.9059 -76.7093 63.6321
22.8107 -75.9496 27.2077
