18.1459 -58.3232 18.7237
8.7077 -67.3367 50.7635
27.2968 -51.9235 23.9153
19.9803 -77.9780 43.5022
26.9655 -77.3895 38.5899
16.4875 -72.2080 50.0244
4.0125 -74.0402 37.8887
29.5477 -52.7180 25.7360
13.7404 -70.2497 20.2208
14.0225 -46.5758 28.5091
21.8500 -76.0372 46.0352
21.0101 -45.5657 39.7636
18.1320 -66.6718 18.1125
26.6481 -62.8971 19.7550
4.7489 -69.2574 25.1950
28.6382 -50.3807 26.9774
19.1338 -46.4858 43.7394
30.1929 -67.3208 23.3858
8.9753 -46.3388 35.9336
28.8679 -59.9824 48.2050
14.7704 -47.9495 45.1346
5.8742 -75.1476 40.6830
8.4083 -57.0559 21.9370
18.7215 -69.4303 51.3973
19.6604 -54.8540 51.3792
34.8893 -60.3950 30.6852
5.8400 -71.5007 25.8813
22.2458 -73.3906 21.6629
22.0197 -51.1381 48.2425
29.2951 -57.1706 22.4117
20.1575 -63.3911 17.8195
7.1001 -50.3825 44.9449
26.1383 -69.9633 48.6694
26.0692 -56.6106 49.6529
8.5833 -61.1885 21.1075
0.7218 -56.6144 42.2212
17.3428 -74.1150 21.8592
14.3131 -46.4351 42.6292
7.5837 -58.8630 50.7153
16.7198 -79.5497 30.0909
21.1360 -68.5053 51.2627
17.8455 -52.0643 21.9283
10.1503 -47.5894 43.8311
10.6140 -78.9580 39.5458
9.0046 -49.1315 27.0252
28.5677 -65.8280 47.8676
15.2075 -46.8281 27.7023
6.7048 -54.2179 23.9463
13.7805 -50.2298 47.7157
24.6622 -72.3960 48.1077
23.8427 -54.4981 20.5593
18.2891 -51.1759 22.8260
7.7541 -77.3147 38.5177
19.3311 -72.5179 49.8065
17.7485 -79.6133 30.2094
16.9969 -79.3783 29.3658
13.0359 -50.3557 23.6459
14.9261 -58.6689 52.7324
2.0219 -54.4391 42.9060
1.8858 -57.9897 45.0523
9.2076 -72.7225 23.6825
17.0468 -54.1622 50.8605
15.9177 -53.2230 21.4083
12.1385 -48.9593 46.3435
28.7796 -61.0597 21.0736
9.2013 -52.0441 47.9956
14.7628 -58.9590 18.8756
15.2643 -63.2451 18.3117
27.1122 -57.8762 49.3265
22.1900 -46.7448 42.8168
33.2214 -67.5167 27.7950
10.9172 -59.2117 52.2123
13.6984 -45.9011 38.5831
9.9109 -65.4260 51.9358
28.7139 -63.5622 21.0527
16.9737 -45.4018 40.9916
8.7928 -68.9547 21.7990
24.9846 -65.4890 50.4312
20.4490 -68.2748 18.4845
12.8689 -68.0968 51.5499
9.0951 -57.0363 50.7989
11.9430 -56.9948 20.5786
11.7782 -47.6998 27.5836
27.0359 -66.2545 20.3550
23.0736 -45.8470 40.2873
23.5985 -46.2285 30.0095
23.8777 -68.2473 50.4793
16.5850 -45.8354 37.9552
19.2631 -52.8485 50.2429
7.3037 -47.2234 37.2733
15.6074 -61.8430 53.1973
9.5653 -52.8102 22.9852
27.2240 -68.1484 21.2260
16.9519 -63.9811 52.8836
6.9267 -62.2021 50.7885
4.8730 -53.8023 25.6672
13.5623 -78.7199 35.1533
13.8434 -65.5038 52.6289
12.2534 -53.2833 50.0930
31.2811 -64.4730 23.6805
23.3368 -59.3603 51.4520
29.8598 -68.7172 46.2218
29.5809 -70.2941 24.5282
28.0907 -73.6769 25.9229
23.9669 -61.4267 18.6160
23.2461 -64.7068 18.4535
24.0430 -50.5169 23.5840
12.4933 -46.4756 30.2693
5.5352 -72.8206 43.6674
22.8708 -58.8824 18.7598
21.5328 -64.3002 51.9520
9.6676 -62.7738 52.2451
33.1144 -57.9024 40.7640
-0.0006 -62.1274 29.6310
34.8228 -65.8694 34.9033
3.3402 -71.8344 41.2517
9.0216 -76.5165 28.8166
-0.2440 -64.9080 40.4290
2.2592 -60.6340 25.7738
3.7364 -55.6577 46.1510
8.4368 -77.4706 40.1280
31.9674 -69.4554 26.9760
1.8473 -54.0786 29.1582
0.7639 -68.9153 36.0233
13.5671 -76.0039 46.3804
26.3608 -50.3899 24.7825
33.2549 -54.3629 31.6086
2.3522 -71.6542 37.7837
31.2834 -70.3306 42.6685
1.4608 -63.4260 27.3440
23.4589 -78.8272 31.3804
-1.0666 -60.0732 35.5302
33.7430 -68.3455 36.9447
29.0889 -74.7131 41.5622
34.1598 -64.1274 28.2776
1.1483 -69.6164 33.8013
5.0694 -72.5559 28.2149
30.9096 -64.9952 45.6609
34.5509 -57.6990 34.2320
2.7685 -68.2280 27.2378
-0.6085 -57.7241 38.0705
32.7626 -66.0025 26.1348
10.9491 -72.0341 22.1821
30.4678 -72.4861 42.4911
34.3890 -66.7762 30.5763
1.2828 -67.7904 30.3021
22.2709 -78.3065 39.8387
26.6771 -48.3447 40.8459
30.6815 -72.9961 29.2967
5.4491 -70.3588 46.2426
31.5787 -66.4658 44.3670
10.7551 -76.2233 44.8849
25.8318 -52.9554 22.1654
0.9167 -53.1376 34.8333
33.9252 -60.9221 27.7182
27.2714 -46.8386 34.8846
13.6639 -77.6900 44.0329
11.1977 -49.2396 25.3995
-0.6853 -61.3510 40.2672
-0.3385 -63.2603 31.1727
4.0393 -61.0507 48.2531
10.2897 -74.0437 46.9493
29.7941 -49.3524 31.2681
4.2729 -73.8513 33.3650
9.9012 -77.7883 30.4262
-0.8643 -62.7408 38.4069
34.9770 -65.8036 32.8630
35.1039 -63.3285 31.3858
23.3281 -49.7715 45.9740
30.5974 -54.6222 43.6526
27.5665 -47.3125 31.6829
15.4980 -78.6811 28.6278
7.1801 -69.3998 48.7494
2.5874 -52.4557 41.4803
31.7462 -51.7935 30.7541
31.8792 -54.2880 40.7263
8.7914 -74.9775 45.0231
7.1191 -76.2917 31.8636
1.2083 -57.6738 28.1566
-0.9930 -61.1788 33.2713
25.3392 -45.9682 32.2721
14.2872 -65.2897 18.6193
4.1862 -49.8691 39.2990
11.6359 -78.6463 41.2731
0.5060 -54.9153 39.1471
29.6173 -51.2438 41.0178
32.2191 -52.7100 36.5216
7.7209 -65.5430 50.9124
3.1673 -72.0989 31.7513
29.2691 -75.9282 37.8852
30.6743 -51.0674 38.2129
29.4769 -56.5661 46.6563
33.7556 -65.8894 38.9310
32.2151 -72.2191 34.3129
31.8748 -56.1199 42.6518
32.1291 -53.7632 28.6200
16.0577 -75.9214 46.9712
31.5709 -58.7467 24.4124
31.4789 -72.3504 39.2618
-0.1708 -58.2788 30.8840
-0.4228 -56.8818 33.1546
10.1613 -75.7956 26.2423
12.8721 -72.5995 49.2112
1.5008 -52.6308 32.3281
18.9034 -59.6965 52.7062
12.6965 -63.0105 52.9638
26.0589 -47.3999 28.8307
9.9867 -78.6141 34.7098
33.4063 -63.0720 40.9534
5.4444 -67.9168 48.0029
27.8951 -52.7820 45.4279
34.7798 -60.6973 36.8036
3.0609 -63.8657 47.0620
32.4179 -60.9724 43.5533
5.4555 -64.0451 49.4305
23.2626 -78.4550 40.3956
27.7553 -77.2219 34.8462
15.6963 -79.3105 29.6735
20.4535 -48.5681 26.6770
1.8176 -51.8880 36.1382
21.1855 -78.1376 42.7911
5.8636 -51.5624 26.6700
21.9456 -54.7708 50.8680
2.8340 -51.9439 30.3792
33.6121 -69.3527 31.4863
11.0276 -79.3200 36.7818
29.4752 -48.7460 34.2558
16.0039 -75.6850 23.4083
22.2858 -45.7408 39.4435
2.4061 -72.1145 35.4652
25.5593 -46.3976 38.1458
7.4018 -54.8385 48.8181
24.9170 -75.5294 25.2027
28.4114 -48.6347 38.1851
10.9069 -79.4163 38.3221
9.8727 -46.1283 35.0397
12.5159 -45.4959 35.1974
4.9837 -67.1520 24.0061
12.0170 -52.1411 22.5699
13.4958 -45.5480 40.4035
23.9064 -45.9578 32.0963
5.3848 -50.0204 42.4647
17.3378 -79.1209 31.3539
31.5922 -60.0808 44.9357
15.7868 -69.6472 51.3719
25.0479 -78.1697 38.6103
6.0029 -62.5438 22.5084
32.9502 -62.1230 25.6869
30.1375 -60.0547 22.2835
26.2679 -75.1553 44.2258
25.9628 -45.9397 34.8776
29.1286 -73.3718 43.6406
33.8836 -69.1170 34.7845
24.1552 -45.5329 37.7176
10.9387 -78.0773 41.9109
15.6846 -45.6758 39.1249
28.1575 -69.3595 47.6064
22.8160 -78.0633 28.1981
13.8179 -45.3318 31.5650
19.0057 -79.4552 29.6662
3.3249 -50.5743 33.3412
25.6413 -51.9040 46.9044
21.4772 -45.2133 40.3956
17.3660 -78.5889 34.4275
14.4371 -78.6982 29.3087
-0.4751 -65.0494 34.0107
24.8159 -77.8465 40.4882
3.0829 -56.6847 25.8496
8.9730 -46.9451 41.7599
14.4995 -78.9368 37.8857
18.5138 -48.4032 46.1570
22.7122 -78.3274 41.1854
20.1208 -72.2839 20.5151
0.8906 -55.0667 30.2926
29.2874 -75.3265 31.8335
22.3699 -77.9703 42.1809
32.6242 -52.7465 33.4735
11.5188 -46.4302 41.7704
22.3241 -45.8529 30.5808
18.9243 -78.8043 28.6296
22.6710 -69.3958 19.3891
8.7119 -76.4673 42.7932
7.8248 -47.1949 40.3546
23.2317 -76.3807 44.7886
16.2854 -77.0160 25.2751
35.2781 -61.7620 34.1586
24.4708 -45.9631 35.3007
23.2454 -52.3685 48.7494
24.2009 -52.1714 22.1346
18.7080 -77.8042 44.2535
23.1279 -45.8135 38.2946
11.6936 -45.4574 33.8410
15.8534 -45.6977 29.6530
17.0139 -80.2853 29.6837
25.9082 -46.3194 36.6879
12.2826 -77.8697 28.1510
24.1447 -70.9748 20.8582
24.1552 -78.3581 39.5030
0.0224 -62.4183 42.3934
11.6580 -79.0070 40.3956
8.8728 -77.8407 33.0809
14.9129 -78.8062 30.6459
15.6984 -72.5944 20.8788
1.5739 -65.9435 44.0519
15.6349 -45.4644 31.0497
21.9971 -74.9415 23.0212
21.4772 -78.4357 42.1809
13.1057 -78.3058 41.5549
8.3626 -46.6875 36.2120
21.7575 -72.6294 49.2256
28.2388 -71.9612 45.8435
0.4973 -59.4696 43.1623
1.2374 -62.0155 44.7598
11.6176 -45.2423 34.9637
21.0035 -45.3883 41.1332
11.5815 -78.6528 31.4035
-0.3067 -55.7355 35.0424
10.8507 -50.1754 47.2043
23.9428 -78.2046 37.3191
26.3901 -77.6010 31.3374
26.4017 -58.6557 19.9793
13.2440 -76.3821 25.1701
33.7186 -56.0615 36.9785
19.3832 -45.4737 41.7345
21.4514 -46.4257 29.3776
20.7178 -53.8270 20.3315
23.2626 -45.6626 39.5030
15.9641 -45.1317 40.3868
5.3812 -57.8909 23.4210
8.0873 -46.6986 36.8250
22.9081 -71.0368 49.8051
25.5508 -73.0689 23.0728
7.7303 -47.7419 33.3349
8.9416 -51.3390 24.3234
11.3912 -45.9772 36.3688
12.2095 -74.0825 22.9896
6.5777 -52.9438 46.9282
3.2259 -65.7836 25.4402
27.7513 -75.2934 27.7949
8.7624 -46.9227 39.1139
24.6228 -48.0311 27.0788
11.4691 -78.4363 32.6914
24.9323 -77.3661 28.1369
23.1365 -76.8468 25.9773
5.3099 -50.3069 29.5889
25.0479 -45.8428 36.8250
20.7116 -79.1320 30.0647
4.0092 -52.6480 44.0184
19.3972 -45.8723 30.0445
19.4578 -75.4970 47.1394