-24.7637 -55.6756 15.1149
-24.6908 -55.8679 18.0962
38.4138 -35.7476 30.1266
9.1479 -62.2698 43.7011
9.1479 -62.2698 12.2953
38.4138 -35.7476 48.6059
-12.8015 -41.2350 21.1480
-12.8015 -41.2350 3.4052
21.0372 -47.6369 21.5328
21.0372 -47.6369 45.8762
32.9264 -33.0039 30.5033
3.6605 -59.5261 40.4767
3.6605 -59.5261 9.5429
32.9264 -33.0039 48.4741
-18.2889 -38.4913 3.2308
-18.2889 -38.4913 18.9304
15.5498 -44.8932 23.6710
15.5498 -44.8932 39.1373
-1.8268 -56.7825 5.8604
-1.8268 -56.7825 34.1252
32.3957 -63.1916 39.2526
10.2759 -42.5371 22.7866
10.8103 -42.1672 25.4621
10.1321 -42.1110 26.1360
9.8186 -41.8515 24.2423
9.8118 -42.6988 29.7722
10.2059 -42.1094 27.7151
43.9011 -48.5514 35.2652
43.9011 -48.5514 46.0765
-7.3142 -54.0388 4.1115
-7.3142 -54.0388 32.5728
26.5245 -60.4407 49.6082
26.5245 -60.4407 25.2851
38.4138 -45.8078 52.7377
38.4138 -45.8078 30.3597
-12.8015 -51.2951 1.8873
-12.8015 -51.2951 26.7019
21.0372 -57.6970 19.6283
21.0372 -57.6970 50.3045
4.0584 -69.5342 28.8593
32.9264 -43.0641 24.5837
3.6605 -69.5863 16.6323
32.9264 -43.0641 54.1830
-18.2889 -48.5514 23.5114
-18.2889 -48.5514 0.0085
15.5498 -54.9533 47.1406
15.5498 -54.9533 15.0095
-1.8268 -66.8426 15.8432
-1.8268 -66.8426 30.8822
27.4391 -40.3204 23.7166
27.4391 -40.3204 51.6937
-23.7727 -45.4463 6.7903
-23.7762 -45.8078 21.9793
10.0625 -52.2097 40.1974
10.0625 -52.2097 13.9376
-7.3142 -64.0989 30.3602
-7.3142 -64.0989 20.6287
21.9517 -37.5767 29.1457
21.9517 -37.5767 43.1085
4.5751 -49.4660 7.9533
4.5751 -49.4660 34.2273
38.4138 -55.8679 32.4579
38.4138 -55.8679 48.3021
-13.1481 -61.2962 21.6534
-12.8015 -61.3553 26.3441
21.5956 -67.8980 38.0911
21.0372 -67.7572 21.9421
-0.9123 -46.7223 7.6455
-0.9123 -46.7223 26.8563
32.9264 -53.1242 28.6987
-18.6534 -58.7445 14.2955
-18.2889 -58.6116 22.5497
15.5498 -65.0135 16.1230
44.8157 -38.4913 32.3772
44.8157 -38.4913 44.4444
-6.3996 -43.9786 25.4581
-6.3996 -43.9786 5.1326
27.4391 -50.3805 53.7677
27.4391 -50.3805 22.1199
-24.1142 -55.7899 14.2611
-23.7762 -55.8679 19.5716
10.0625 -62.2698 44.1844
10.0625 -62.2698 12.6362
39.3284 -35.7476 48.3778
39.3284 -35.7476 30.7177
-11.8870 -41.2350 3.5697
21.9517 -47.6369 21.7188
21.9517 -47.6369 48.4347
4.5751 -59.5261 41.3080
33.8410 -33.0039 48.4112
33.8410 -33.0039 30.7572
4.5751 -59.5261 10.0820
-17.3743 -38.4913 3.1306
-17.3743 -38.4913 18.9124
16.4644 -44.8932 23.4945
16.4644 -44.8932 40.0343
28.4586 -30.4453 39.6192
-0.9123 -56.7825 6.2514
-0.9123 -56.7825 34.3749
28.3536 -30.2602 41.6268
33.1750 -63.0589 38.9570
10.7857 -42.2427 23.3507
11.6405 -42.3675 25.3065
10.4966 -42.0057 24.1581
10.6967 -42.4301 29.9878
44.8157 -48.5514 43.6239
44.8157 -48.5514 36.3161
-6.3996 -54.0388 32.8079
-6.3996 -54.0388 4.2968
27.4391 -60.4407 49.5639
27.4391 -60.4407 26.3315
39.3284 -45.8078 52.3621
39.3284 -45.8078 31.0106
-11.8870 -51.2951 2.3498
-11.8870 -51.2951 27.2535
21.9517 -57.6970 20.2443
21.9517 -57.6970 50.4097
4.9875 -69.5638 28.8447
33.8410 -43.0641 25.0186
4.5751 -69.5863 16.4182
33.8410 -43.0641 53.9345
-17.3743 -48.5514 23.5736
-17.3743 -48.5514 0.1135
16.4644 -54.9533 48.0638
28.3536 -40.3204 52.0969
-0.9123 -66.8426 14.9670
-0.9123 -66.8426 31.2519
28.3536 -40.3204 23.9026
-22.8278 -45.6845 4.7437
-22.8617 -45.8078 22.4025
22.8663 -37.5767 43.7860
22.8663 -37.5767 28.2087
5.4897 -49.4660 8.6654
39.3284 -55.8679 33.4370
39.3284 -55.8679 47.3017
-12.3479 -61.3741 20.7809
-11.8870 -61.3553 26.6681
22.5005 -67.8589 38.0254
21.9517 -67.7572 22.8851
33.8410 -53.1242 54.5285
33.8410 -53.1242 28.9573
-17.8164 -58.7084 13.4175
-17.3743 -58.6116 24.0073
45.7303 -38.4913 40.6673
16.4644 -65.0135 46.1939
16.4644 -65.0135 16.7341
45.7303 -38.4913 33.5044
-5.4851 -43.9786 25.4839
-5.4851 -43.9786 5.5364
28.3536 -50.3805 54.4172
28.3536 -50.3805 22.4458
-22.4787 -55.5850 10.8226
-22.8617 -55.8679 24.5752
10.9770 -62.2698 12.9978
10.9770 -62.2698 44.7203
40.2429 -35.7476 48.0230
40.2429 -35.7476 31.3567
-10.9724 -41.2350 21.1127
-10.9724 -41.2350 3.6684
22.8663 -47.6369 21.9000
22.8663 -47.6369 50.2636
5.4897 -59.5261 42.1998
5.4897 -59.5261 10.5539
34.7556 -33.0039 47.8043
34.7556 -33.0039 30.9703
-16.4598 -38.4913 18.8135
-16.4598 -38.4913 3.2077
17.3789 -44.8932 40.9647
17.3789 -44.8932 23.2215
0.0023 -56.7825 6.7251
33.8050 -62.9188 38.6771
33.8410 -63.1844 37.1883
12.3859 -42.2727 25.5350
11.8916 -42.1495 30.8166
-5.4851 -54.0388 33.0284
-5.4851 -54.0388 4.4901
28.3536 -60.4407 49.5224
28.3536 -60.4407 27.2583
40.2429 -45.8078 51.8728
40.2429 -45.8078 31.4951
-10.9724 -51.2951 2.8232
-10.9724 -51.2951 27.8669
22.8663 -57.6970 20.9258
22.8663 -57.6970 50.5561
5.9089 -69.5803 28.8286
5.2822 -69.4403 33.6166
5.4897 -69.5863 16.3014
5.4897 -69.5863 37.2784
34.7556 -43.0641 25.3810
34.7556 -43.0641 53.6588
-16.4598 -48.5514 23.8549
-16.4598 -48.5514 0.3627
17.3789 -54.9533 48.8586
17.3789 -54.9533 17.4244
0.0023 -66.8426 14.3828
29.2682 -40.3204 52.4570
0.0023 -66.8426 31.6606
29.2682 -40.3204 24.0944
-21.9333 -45.5587 3.0779
-21.9471 -45.8078 22.6059
11.8916 -52.2097 41.7383
11.8916 -52.2097 15.3020
23.7808 -37.5767 26.7972
-5.4851 -64.0989 31.7830
23.7808 -37.5767 44.5177
6.4042 -49.4660 10.7231
6.4042 -49.4660 35.4383
40.2429 -55.8679 45.6271
-11.7319 -61.5251 20.4408
-10.9724 -61.3553 27.1848
23.3036 -67.7641 37.9523
0.9169 -46.7223 9.8557
0.9169 -46.7223 28.5081
-16.3875 -58.5119 11.6369
-16.4598 -58.6116 24.9975
17.3789 -65.0135 46.5483
-4.5705 -43.9786 25.1119
-4.5705 -43.9786 6.1980
29.2682 -50.3805 54.9348
29.2682 -50.3805 22.9705
-22.1144 -55.6878 10.4727
-21.9471 -55.8679 25.0012
11.8916 -62.2698 13.4007
11.8916 -62.2698 45.2550
41.1575 -35.7476 47.3277
-10.0579 -41.2350 21.3375
-10.0579 -41.2350 3.8251
23.7808 -47.6369 51.1207
23.7808 -47.6369 22.0433
-27.4345 -53.1242 14.9275
-27.4345 -53.1242 13.5269
6.4042 -59.5261 10.9511
6.4042 -59.5261 42.9821
35.6701 -33.0039 31.2073
35.6701 -33.0039 47.1440
-15.5452 -38.4913 18.7075
-15.5452 -38.4913 3.3519
18.2935 -44.8932 22.9268
18.2935 -44.8932 41.9031
0.9169 -56.7825 7.2166
0.9168 -56.7824 35.5092
-20.6534 -36.0512 10.5879
-21.0326 -35.7476 11.5674
12.9487 -42.3326 25.4215
12.8061 -42.1495 32.5269
-4.5705 -54.0388 33.2230
-4.5705 -54.0388 4.7297
29.2682 -60.4407 28.0455
29.2682 -60.4407 49.2668
41.1575 -45.8078 31.9274
41.1575 -45.8078 51.2321
-10.0579 -51.2951 28.5126
-10.0579 -51.2951 3.2331
23.7808 -57.6970 21.6701
23.7808 -57.6970 50.7793
6.8296 -69.5863 28.8050
5.9340 -69.5179 33.4764
6.4042 -69.5863 16.2449
35.6701 -43.0641 25.8602
35.6701 -43.0641 53.3409
-15.5452 -48.5514 24.2639
-15.5452 -48.5514 0.7397
18.2935 -54.9533 49.4811
18.2935 -54.9533 18.0295
30.1828 -40.3204 24.3231
0.9169 -66.8426 13.9276
30.1828 -40.3204 52.7669
0.9169 -66.8426 32.1536
-20.9860 -45.7795 1.4518
-21.0326 -45.8078 22.6532
12.8061 -52.2097 42.2302
12.8061 -52.2097 15.8452
24.6954 -37.5767 45.6330
-4.5705 -64.0989 32.1977
-4.5705 -64.0989 11.8079
24.6954 -37.5767 26.0603
-26.4926 -42.9499 12.7071
-26.5199 -43.0641 18.1833
7.3188 -49.4660 12.4807
7.3188 -49.4660 36.0384
41.1586 -55.8715 43.0255
41.1575 -55.8679 36.8635
-10.1545 -61.3871 14.3298
23.7808 -67.7572 24.5719
23.7808 -67.7572 37.7468
2.1401 -46.9594 10.5388
1.8314 -46.7223 29.5923
35.6701 -53.1242 29.7376
35.6701 -53.1242 53.3170
-15.2665 -58.4361 9.9966
-15.5452 -58.6116 25.7271
18.2935 -65.0135 46.7995
-3.6559 -43.9786 24.1525
-3.6559 -43.9786 7.1118
30.1828 -50.3805 55.3328
30.1828 -50.3805 23.8105
-20.5564 -55.3541 6.8215
-20.7760 -55.8813 24.7852
12.8061 -62.2698 13.8307
12.8067 -62.2698 45.7631
42.0720 -35.7476 32.7106
-9.1433 -41.2350 21.6701
-9.1433 -41.2350 4.1169
24.6954 -47.6369 51.7230
24.6954 -47.6369 22.1211
-26.7723 -52.7589 13.6799
-26.5199 -53.1242 16.9759
7.3188 -59.5261 11.3424
7.3188 -59.5261 43.6785
36.5847 -33.0039 31.4669
36.5847 -33.0039 46.6516
-14.6307 -38.4913 18.4927
-14.6307 -38.4913 3.5486
19.2080 -44.8932 42.7909
19.2080 -44.8932 22.7055
1.8314 -56.7825 7.6284
1.8314 -56.7825 36.2869
-19.4520 -36.1008 9.0083
-20.1639 -35.8521 12.3301
13.8582 -42.2740 25.3868
13.7207 -42.1495 34.4010
-3.6559 -54.0388 5.0434
-3.6559 -54.0388 33.4466
30.1828 -60.4407 48.6711
30.1828 -60.4407 28.7958
42.0720 -45.8078 32.3476
-9.1433 -51.2951 29.2842
-9.1433 -51.2951 3.5492
24.6954 -57.6970 51.1126
24.6954 -57.6970 22.3933
7.7534 -69.5837 28.7647
6.8554 -69.5340 33.4747
7.3188 -69.5863 39.0238
36.5847 -43.0641 26.4516
7.3188 -69.5863 16.2224
36.5847 -43.0641 52.9889
-14.6307 -48.5514 24.6872
-14.6307 -48.5514 1.2294
19.2080 -54.9533 18.4303
19.2080 -54.9533 49.9656
31.0973 -40.3204 24.6087
1.8314 -66.8426 13.6460
31.0973 -40.3204 53.0319
-20.1180 -45.8078 22.6225
-20.1180 -45.8078 0.6541
13.7207 -52.2097 16.4286
13.7207 -52.2097 42.7358
-3.6559 -64.0989 10.5436
-3.6559 -64.0989 32.4801
25.6100 -37.5767 47.7379
25.6100 -37.5767 25.9732
-25.5659 -42.9330 10.9730
-25.6054 -43.0641 19.3713
8.2333 -49.4660 13.5944
-9.2643 -61.3332 12.7053
-9.1433 -61.3553 29.6798
24.6954 -67.7572 37.0954
24.6954 -67.7572 25.3923
2.9649 -47.1017 10.7496
2.7460 -46.7223 30.3520
36.5847 -53.1242 52.6801
-14.8014 -58.5226 9.6706
-14.3320 -58.7141 5.7543
-14.6307 -58.6116 5.2352
-14.6307 -58.6116 26.3938
19.2080 -65.0135 19.4323
19.2080 -65.0135 47.0057
-3.0008 -43.7014 23.7397
-2.7414 -43.9786 8.0877
31.0973 -50.3805 55.5793
31.0973 -50.3805 24.9749
-19.8261 -55.6591 6.0201
-20.1180 -55.8679 25.0521
13.7207 -62.2698 14.3001
13.7207 -62.2698 46.2092
42.9866 -35.7476 42.6596
42.9866 -35.7476 33.6384
-8.2287 -41.2350 22.1306
25.6100 -47.6369 52.1657
25.6100 -47.6369 22.0890
-25.3081 -52.8484 12.4391
-25.6054 -53.1242 17.8779
8.2333 -59.5261 44.1613
37.4992 -33.0039 31.8301
37.4992 -33.0039 46.3159
8.2333 -59.5261 11.7408
-13.7161 -38.4913 18.2383
-13.7161 -38.4913 3.7546
20.1226 -44.8932 43.6240
20.1226 -44.8932 22.6291
2.7460 -56.7825 8.0045
2.7460 -56.7825 37.0262
-18.8295 -35.9572 9.0824
-19.2035 -35.7476 12.8845
14.6352 -42.1495 25.6950
14.6352 -42.1495 36.6153
-2.7414 -54.0388 5.2571
-2.7414 -54.0388 33.6275
31.0973 -60.4407 29.5472
42.9866 -45.8078 32.7731
42.9866 -45.8078 49.2557
-8.2287 -51.2951 30.1313
-8.2287 -51.2951 3.8409
25.6095 -57.6963 23.1036
25.6100 -57.6970 51.4995
8.6726 -69.5739 28.6993
7.7820 -69.5362 33.5000
37.4992 -43.0641 52.6329
37.4992 -43.0641 27.1905
8.2333 -69.5863 16.2552
8.2333 -69.5863 39.1341
-13.7161 -48.5514 25.1790
-13.7161 -48.5514 1.7556
20.1226 -54.9533 18.8196
20.1226 -54.9533 50.2488
32.0119 -40.3204 24.9820
2.7460 -66.8426 13.5981
32.0119 -40.3204 53.1835
2.7460 -66.8426 34.5895
-19.2035 -45.8078 22.5416
-19.2035 -45.8078 0.3784
14.6352 -52.2097 43.3266
14.6352 -52.2097 17.0288
26.5245 -37.5767 49.0083
-2.7414 -64.0989 32.6704
-2.7414 -64.0989 9.7536
26.5245 -37.5767 26.0884
-24.5161 -42.8674 9.0614
9.1479 -49.4660 37.2993
9.1479 -49.4660 15.3469
-8.6880 -61.4658 12.3220
-8.2287 -61.3553 30.8451
25.6100 -67.7572 36.2736
25.6100 -67.7572 26.3368
4.0662 -47.0015 11.3508
3.6605 -46.7223 30.9841
37.4992 -53.1242 52.0036
37.4992 -53.1242 30.7601
-13.9867 -58.6034 8.8125
-13.5886 -58.7102 6.0803
-13.7161 -58.6116 27.0014
-13.7161 -58.6116 4.9864
20.1226 -65.0135 47.2759
20.1226 -65.0135 20.5315
-1.8754 -43.9684 23.7124
-1.8268 -43.9786 9.0213
32.0119 -50.3805 55.6027
-19.2035 -55.8679 5.3440
-19.2035 -55.8679 25.2082
14.6352 -62.2698 46.5822
43.9011 -35.7476 35.1610
14.6352 -62.2698 14.8472
-7.3142 -41.2350 22.7688
-7.3142 -41.2350 5.3460
26.5245 -47.6369 52.6295
26.5245 -47.6369 22.0863
-24.6881 -52.5609 11.3915
-24.6908 -53.1242 18.7670
38.4138 -33.0039 32.3719
38.4138 -33.0039 45.9537
9.1479 -59.5261 12.1474
9.1479 -59.5261 44.5619
-12.8015 -38.4913 17.9541
-12.8015 -38.4913 3.9409
21.0372 -44.8932 44.7985
21.0372 -44.8932 22.6466
3.6605 -56.7825 8.4294
-18.0060 -35.8460 8.3096
-18.0463 -35.8371 9.8881
-18.2889 -35.7476 13.3184
-18.2889 -35.7476 5.4542
15.5498 -42.1495 38.0736
15.5498 -42.1495 25.5701
-1.8268 -54.0388 5.3678
-1.8268 -54.0388 33.7998
32.0119 -60.4407 30.2980
32.0119 -60.4407 44.6965
43.9011 -45.8078 33.1911
43.9011 -45.8078 47.7550
-7.3142 -51.2951 4.1850
-7.3142 -51.2951 30.8976
26.5245 -57.6970 51.9220
9.4236 -69.5632 28.6218
9.1622 -69.2530 38.8821
8.6716 -69.5248 33.5537
38.4138 -43.0641 52.3144
38.4138 -43.0641 28.0451
-12.8015 -48.5514 2.2873
-12.8015 -48.5514 25.7268
21.0372 -54.9533 19.1888
21.0372 -54.9533 50.4020
3.6605 -66.8426 13.5640
3.6605 -66.8426 37.1890
32.9264 -40.3204 25.4063
32.9264 -40.3204 53.2179
-18.2889 -45.8078 22.4719
-18.2889 -45.8078 0.3063
15.5498 -52.2097 44.0496
15.5498 -52.2097 17.5710
-1.8268 -64.0989 32.9390
-1.8268 -64.0989 9.2714
27.4391 -37.5767 26.1953
27.4391 -37.5767 49.7562
-23.5953 -42.8832 7.2879
-23.7762 -43.0641 20.8488
10.0625 -49.4660 38.0116
10.0625 -49.4660 16.8986
-7.1721 -61.2496 9.9496
21.9517 -34.8330 32.4744
-7.3142 -61.3553 31.8709
21.9517 -34.8330 37.3089
26.5245 -67.7572 27.7108
26.5245 -67.7572 34.9949
4.9217 -47.0444 11.6405
4.5751 -46.7223 31.5864
38.4138 -53.1242 51.1518
38.4138 -53.1242 31.4425
-12.6374 -58.8111 6.1193
-12.9837 -58.6634 7.3691
-12.8015 -58.6116 27.5623
-12.8015 -58.6116 5.0498
21.0372 -65.0135 47.5726
21.0372 -65.0135 21.4872
-0.9183 -44.0336 23.7120
-0.9123 -43.9786 10.3740
32.9264 -50.3805 55.3501
32.9264 -50.3805 27.5813
-18.2889 -55.8679 4.7644
-18.2889 -55.8679 25.5622
15.5498 -62.2698 46.9782
15.5498 -62.2698 15.4894
-6.3996 -41.2350 23.2178
-6.3996 -41.2350 6.1978
27.4391 -47.6369 53.1436
27.4391 -47.6369 22.1097
-23.9164 -52.8779 10.3166
-23.7762 -53.1242 20.7409
10.0625 -59.5261 12.5391
10.0625 -59.5261 44.9523
39.3284 -33.0039 45.3423
39.3284 -33.0039 33.1117
-12.2526 -38.5381 17.8099
-11.8870 -38.4913 4.1729
21.9517 -44.8932 22.5617
4.5751 -56.7825 38.8564
4.5751 -56.7825 8.9560
-17.4199 -35.7852 8.1743
-17.1539 -35.6614 12.6593
-17.3743 -35.7476 13.6221
-17.3743 -35.7476 5.3423
16.4644 -42.1495 25.2996
16.4644 -42.1495 39.1889
-0.9123 -54.0388 33.9664
32.9264 -60.4407 31.0448
44.8157 -45.8078 33.6617
-6.3996 -51.2951 4.5463
-6.3996 -51.2951 31.5386
27.4391 -57.6970 24.7092
10.4848 -69.6307 28.0958
10.1183 -69.4263 37.8588
9.8606 -69.5573 34.0831
39.3284 -43.0641 52.0040
10.0625 -69.5863 16.9515
39.3284 -43.0641 29.0363
-11.8870 -48.5514 2.8317
-11.8870 -48.5514 26.2498
21.9517 -54.9533 19.5309
21.9517 -54.9533 50.6140
4.5751 -66.8426 38.8351
4.5751 -66.8426 13.4681
33.8410 -40.3204 25.8190
33.8410 -40.3204 53.0413
-17.3743 -45.8078 22.4802
-17.3743 -45.8078 0.5393
16.4644 -52.2097 17.8974
16.4644 -52.2097 44.9107
-0.9123 -64.0989 33.3901
28.3536 -37.5767 26.2402
-22.5211 -42.8269 5.4241
-22.8617 -43.0641 21.3046
10.9770 -49.4660 38.7176
10.9770 -49.4660 17.5564
22.8663 -34.8330 31.9396
-6.3996 -61.3553 9.5579
22.8663 -34.8330 41.1930
5.4897 -46.7223 32.3471
39.3284 -53.1242 32.3114
39.3284 -53.1242 50.2206
-12.0616 -58.8378 6.2638
-12.4696 -58.7776 7.0671
-11.8870 -58.6116 28.1329
-11.8870 -58.6116 5.2893
21.9517 -65.0135 47.6708
21.9517 -65.0135 22.2454
0.3448 -43.9113 14.8009
-0.2117 -44.3053 23.7630
33.8410 -50.3805 54.8476
33.8410 -50.3805 28.1479
-17.3743 -55.8679 4.2959
-17.3743 -55.8679 25.9361
16.4644 -62.2698 47.3884
16.4644 -62.2698 16.1323
-5.6447 -41.5840 23.2232
-5.4851 -41.2350 7.1321
28.3536 -47.6369 53.8198
28.3536 -47.6369 22.2354
-22.8694 -53.0558 8.4980
-22.8617 -53.1242 22.6444
40.2429 -33.0039 44.1687
10.9770 -59.5261 12.9462
10.9770 -59.5261 45.3735
40.2429 -33.0039 34.1725
-11.4351 -38.6280 17.6784
22.8663 -44.8932 22.4107
22.8663 -44.8932 50.3083
5.4897 -56.7825 9.6019
5.4897 -56.7825 40.0804
-16.5631 -35.8026 8.5988
-16.4598 -35.7476 5.3713
17.3789 -42.1495 25.0216
17.3789 -42.1495 40.3692
0.0023 -54.0388 5.8792
0.0023 -54.0388 34.1510
33.8410 -60.4407 43.5476
33.8410 -60.4407 31.8519
-5.4851 -51.2951 4.8380
-5.4851 -51.2951 31.9961
28.3536 -57.6970 52.3221
28.3536 -57.6970 25.7473
11.4026 -69.6207 28.0342
11.1854 -69.3263 37.0711
10.5133 -69.5247 34.1749
40.2429 -43.0641 30.0255
10.9770 -69.5863 17.6876
40.2429 -43.0641 51.6444
-10.9724 -48.5514 26.6146
-10.9724 -48.5514 3.3399
22.8663 -54.9533 50.9410
22.8663 -54.9533 19.9294
34.7556 -40.3204 52.6858
5.4897 -66.8426 13.3667
5.4897 -66.8426 39.9228
34.7556 -40.3204 26.2119
-16.4598 -45.8078 0.9757
-16.4598 -45.8078 22.6566
17.3789 -52.2097 18.1002
17.3789 -52.2097 45.9556
0.0023 -64.0989 9.4585
0.0023 -64.0989 34.0468
29.2682 -37.5767 50.8318
29.2682 -37.5767 26.2566
-21.5472 -43.2280 3.3237
-21.9471 -43.0641 21.6242
11.8916 -49.4660 17.8862
-5.4851 -61.3553 33.7792
-5.4851 -61.3553 8.8219
23.7808 -34.8330 42.8362
23.7808 -34.8330 31.3714
6.4042 -46.7223 33.1429
6.4042 -46.7223 12.5740
40.2429 -53.1242 33.3428
40.2429 -53.1242 49.0737
-10.9724 -58.6116 5.4462
-10.9724 -58.6116 28.9807
22.8663 -65.0135 47.6251
22.8663 -65.0135 22.9948
1.1963 -44.0493 14.7970
0.4797 -44.2054 23.8089
34.7556 -50.3805 54.2760
34.7556 -50.3805 28.6300
-16.4598 -55.8679 26.3043
-16.4598 -55.8679 3.8265
17.3789 -62.2698 47.7697
17.3789 -62.2698 16.8174
-4.8596 -41.5769 22.9580
29.2682 -47.6369 54.6201
29.2682 -47.6369 22.4916
-22.2917 -52.6800 6.9952
-21.9471 -53.1242 23.5280
11.8916 -59.5261 13.3672
11.8916 -59.5261 45.8249
41.1575 -33.0039 42.3110
-10.1582 -38.4216 16.1164
-10.0579 -38.4913 5.3507
23.7808 -44.8932 22.2391
-27.0704 -49.9814 13.5875
-27.4345 -50.3805 16.0951
6.4042 -56.7825 41.4845
6.4042 -56.7825 10.3220
-15.8901 -35.8133 8.6599
-15.5452 -35.7476 5.4587
18.2935 -42.1495 24.7563
18.2935 -42.1495 41.5225
0.9169 -54.0388 6.3031
0.9169 -54.0388 34.3667
34.7556 -60.4407 32.8278
34.7556 -60.4407 43.1781
-4.5705 -51.2951 32.3601
-4.5705 -51.2951 5.0443
29.2682 -57.6970 52.3189
29.2682 -57.6970 26.7144
12.3238 -69.6139 27.9980
11.9287 -69.1143 37.0083
11.3159 -69.4712 34.2156
41.1575 -43.0641 51.2590
41.1575 -43.0641 30.7344
-10.0579 -48.5514 26.8946
-10.0579 -48.5514 3.7414
23.7808 -54.9533 51.3833
23.7808 -54.9533 20.4135
35.6701 -40.3204 52.2381
35.6701 -40.3204 26.6914
6.4042 -66.8426 13.3394
6.4042 -66.8426 40.6421
-15.5452 -45.8078 1.4664
-15.5452 -45.8078 22.9857
18.2935 -52.2097 47.2056
18.2935 -52.2097 18.3622
30.1828 -37.5767 26.3008
0.9169 -64.0989 34.8916
0.9169 -64.0989 9.9184
30.1828 -37.5767 51.4009
-21.0326 -43.0641 1.8982
-21.0326 -43.0641 21.8351
12.8061 -49.4660 18.1661
12.8061 -49.4660 39.9135
24.6954 -34.8330 44.0317
24.6954 -34.8330 30.6928
-4.5705 -61.3553 34.0862
7.3188 -46.7223 33.9046
7.3188 -46.7223 13.6077
41.1575 -53.1242 47.4645
41.1575 -53.1242 34.4618
-10.0579 -58.6116 5.5797
-10.0579 -58.6116 30.0491
23.7808 -65.0135 47.2502
23.7808 -65.0135 23.7826
1.8457 -43.7824 15.1604
35.6701 -50.3805 29.2311
35.6701 -50.3805 53.7670
-15.5452 -55.8679 26.7149
-15.5452 -55.8679 3.5067
18.2935 -62.2698 48.1453
18.2935 -62.2698 17.6824
-3.9678 -41.7699 22.9787
-3.6559 -41.2350 9.6477
30.1828 -47.6369 55.1831
30.1828 -47.6369 22.9335
-21.0326 -53.1242 2.5915
-21.0326 -53.1242 24.0182
12.8061 -59.5261 46.3106
-9.4278 -38.4084 15.2768
24.6954 -44.8932 51.7574
24.6954 -44.8932 22.0770
-26.6456 -50.4715 13.2010
-26.5199 -50.3805 17.8461
7.3188 -56.7825 10.9109
7.3188 -56.7825 42.7143
-15.0443 -35.8238 8.6294
-14.6307 -35.7476 5.6420
19.2080 -42.1495 24.5837
19.2080 -42.1495 42.4940
1.8314 -54.0388 6.7351
1.8314 -54.0388 34.6430
35.6701 -60.4407 42.7472
35.6701 -60.4407 33.9944
-3.6559 -51.2951 32.6691
-3.6559 -51.2951 5.2704
30.1828 -57.6970 27.6174
13.2404 -69.6107 27.9765
13.0088 -69.1663 36.0654
12.0930 -69.4156 34.2706
42.0720 -43.0641 50.8707
42.0720 -43.0641 31.2139
12.8061 -69.5863 18.8270
-9.1433 -48.5514 27.2254
-9.1433 -48.5514 4.0698
24.6954 -54.9533 51.9059
24.6954 -54.9533 21.0058
36.5847 -40.3204 27.2751
7.3188 -66.8426 13.4222
7.3188 -66.8426 41.1305
36.5847 -40.3204 51.7861
-14.6307 -45.8078 1.9507
-14.6307 -45.8078 23.4460
19.2080 -52.2097 18.6681
19.2080 -52.2097 48.2983
1.8314 -64.0989 36.1791
31.0973 -37.5767 51.9127
1.8314 -64.0989 10.5044
31.0973 -37.5767 26.4149
-20.1180 -43.0641 1.3636
13.7207 -49.4660 40.4301
13.7207 -49.4660 18.4452
25.6100 -34.8330 30.1282
-3.6559 -61.3553 7.8636
-3.6559 -61.3553 34.3180
25.6100 -34.8330 45.1278
8.2333 -46.7223 16.2408
8.2333 -46.7223 34.5761
42.0720 -53.1242 45.1692
-9.1433 -58.6116 5.7011
-9.1433 -58.6116 31.1140
24.6954 -65.0135 46.5333
24.6954 -65.0135 24.6028
2.7894 -44.0585 15.0705
2.7460 -43.9786 26.0804
36.5847 -50.3805 29.8754
36.5847 -50.3805 53.2621
-14.6307 -55.8679 27.2245
-14.6307 -55.8679 3.3198
19.2080 -62.2698 18.8396
19.2080 -62.2698 48.5431
-2.8356 -41.4036 22.5188
31.0973 -47.6369 55.4053
31.0973 -47.6369 23.5495
-20.1180 -53.1242 24.5442
-20.1180 -53.1242 2.1067
13.7207 -59.5261 14.2433
13.7207 -59.5261 46.8097
-7.8589 -38.3143 12.6283
-8.2287 -38.4913 7.6937
25.6100 -44.8932 52.1057
25.6100 -44.8932 21.9554
-25.8139 -50.0850 12.1772
-25.6054 -50.3805 18.9798
8.2333 -56.7825 11.3733
8.2333 -56.7825 43.5704
-14.1523 -35.8331 8.5411
-13.7161 -35.7476 5.9185
20.1226 -42.1495 24.5031
20.1226 -42.1495 43.3601
2.7460 -54.0388 7.2171
2.7460 -54.0388 35.0733
36.5847 -60.4407 41.9296
-2.7414 -51.2951 5.4081
31.0973 -57.6970 51.8686
31.0973 -57.6970 28.4846
14.1522 -69.6072 27.9580
13.5438 -69.2504 35.2947
12.8229 -69.3571 34.4375
13.7207 -69.5863 19.0704
42.9866 -43.0641 31.5941
42.9866 -43.0641 50.2048
-8.2287 -48.5514 4.3945
-8.2287 -48.5514 27.6436
25.6100 -54.9533 52.5381
25.6100 -54.9533 21.7225
8.2333 -66.8426 13.5826
8.2333 -66.8426 41.4885
37.4992 -40.3204 51.4399
37.4992 -40.3204 27.8747
-13.7161 -45.8078 2.4969
-13.7161 -45.8078 23.9317
20.1226 -52.2097 18.9817
20.1226 -52.2097 49.0099
2.7458 -64.0990 11.0332
32.0119 -37.5767 26.6339
-19.2035 -43.0641 1.0976
-19.2035 -43.0641 22.0605
14.6352 -49.4660 40.9981
14.6352 -49.4660 18.6309
26.5245 -34.8330 29.6030
-2.7414 -61.3553 7.5263
26.5245 -34.8330 46.1895
-2.7414 -61.3553 34.6431
-24.5961 -39.9225 10.5478
-24.6908 -40.3204 17.6652
9.1479 -46.7223 35.3135
9.1479 -46.7223 18.7139
42.9866 -53.1242 41.5751
-8.2287 -58.6116 5.7678
-8.2287 -58.6116 33.3397
25.6100 -65.0135 25.4031
3.8618 -43.6509 15.7067
3.6605 -43.9786 28.1458
37.4992 -50.3805 52.7170
37.4992 -50.3805 30.5185
-13.7161 -55.8679 27.9098
-13.7161 -55.8679 3.3112
20.1226 -62.2698 48.8998
20.1226 -62.2698 20.0246
-2.1160 -41.3666 22.4137
-1.8860 -41.6702 14.0911
32.0119 -47.6369 55.3059
32.0119 -47.6369 24.3820
-19.2035 -53.1242 24.9864
14.6352 -59.5261 47.3080
14.6352 -59.5261 14.7693
-7.3142 -38.4913 12.3394
26.5245 -44.8932 52.4995
26.5245 -44.8932 21.9370
-24.6660 -50.4040 10.4486
9.1479 -56.7825 44.1334
9.1479 -56.7825 11.7378
-13.1804 -35.8235 8.4087
-12.8015 -35.7476 6.5988
21.0372 -42.1495 24.4222
21.0372 -42.1495 44.2374
3.6605 -54.0388 7.7854
3.6605 -54.0388 35.6699
15.6637 -39.2825 29.9338
15.5498 -39.4058 34.9772
-1.8268 -51.2951 33.1327
-1.8268 -51.2951 5.4246
32.0119 -57.6970 29.1389
15.0563 -69.5950 27.9290
43.9011 -43.0641 49.2068
43.9011 -43.0641 31.9348
-7.3142 -48.5514 4.7563
-7.3142 -48.5514 28.1368
26.5245 -54.9533 22.5144
9.1479 -66.8426 41.7147
38.4138 -40.3204 51.1753
38.4138 -40.3204 28.4613
-12.8015 -45.8078 24.4011
-12.8015 -45.8078 3.0639
21.0372 -52.2097 19.2762
21.0372 -52.2097 49.6732
32.9264 -37.5767 52.1266
3.6605 -64.0989 11.3633
3.6605 -64.0989 38.6988
32.9264 -37.5767 26.9445
-18.2889 -43.0641 1.1979
-18.2889 -43.0641 22.1183
15.5498 -49.4660 41.7142
15.5498 -49.4660 18.9127
-1.8268 -61.3553 7.5499
-1.8268 -61.3553 35.1361
27.4391 -34.8330 29.1755
27.4391 -34.8330 47.2573
-23.7880 -39.9623 9.5094
-23.7762 -40.3204 18.7807
10.0625 -46.7223 36.0859
-7.3142 -58.6116 5.7845
-7.3142 -58.6116 34.6665
26.5245 -65.0135 40.5770
26.5245 -65.0135 26.2395
4.7217 -43.5763 15.8697
4.5751 -43.9786 29.4332
38.4138 -50.3805 52.1103
-12.8015 -55.8679 28.8008
-12.8015 -55.8679 3.4402
21.0372 -62.2698 20.9920
21.0372 -62.2698 49.2304
-1.2474 -41.3469 22.3227
-0.6521 -42.0991 15.3095
32.9264 -47.6369 25.3912
-18.2889 -53.1242 1.7907
-18.2889 -53.1242 25.3394
15.5498 -59.5261 15.3784
15.5498 -59.5261 47.8114
27.4391 -44.8932 22.0339
27.4391 -44.8932 52.9964
-24.2309 -50.0384 9.5080
-23.7762 -50.3805 21.4039
10.0625 -56.7825 12.0577
10.0625 -56.7825 44.5391
21.9517 -42.1495 24.0266
21.9517 -42.1495 45.4385
4.5751 -54.0388 8.4214
4.5751 -54.0388 36.4549
16.7326 -39.5834 28.0725
-0.9123 -51.2951 33.2803
-0.9123 -51.2951 5.4213
32.9264 -57.6970 29.6673
15.9451 -69.5661 27.8735
15.5498 -69.5863 19.6168
44.8157 -43.0641 32.3124
44.8157 -43.0641 47.6716
-6.3996 -48.5514 28.6893
-6.3996 -48.5514 5.0593
27.4391 -54.9533 23.3695
27.4391 -54.9533 53.5065
10.0625 -66.8426 13.8998
10.0625 -66.8426 41.7704
39.3284 -40.3204 50.9520
39.3284 -40.3204 29.0681
-11.8870 -45.8078 24.6889
-11.8870 -45.8078 3.5450
21.9517 -52.2097 19.5883
33.8410 -37.5767 27.2832
4.5751 -64.0989 11.5260
4.5751 -64.0989 40.0253
33.8410 -37.5767 51.7655
-17.3743 -43.0641 1.5053
-17.3743 -43.0641 22.2069
16.4644 -49.4660 19.2266
16.4644 -49.4660 42.5149
-0.9123 -61.3553 7.7424
-0.9123 -61.3553 35.7838
28.3536 -34.8330 28.8188
28.3536 -34.8330 48.1884
-22.7657 -40.1802 7.9671
-22.8617 -40.3204 19.5467
10.9770 -46.7223 21.5361
10.9770 -46.7223 36.7750
-6.3996 -58.6116 5.7577
-6.3996 -58.6116 34.9313
5.4183 -43.5446 15.8667
5.4897 -43.9786 30.0493
39.3284 -50.3805 31.9229
39.3284 -50.3805 51.3994
-11.8870 -55.8679 29.9127
-11.8870 -55.8679 3.6079
21.9517 -62.2698 21.7538
21.9517 -62.2698 49.5150
-0.3782 -41.3623 22.2496
0.2067 -41.6017 16.2026
33.8410 -47.6369 26.2921
33.8410 -47.6369 54.4417
-17.3743 -53.1242 1.7658
-17.3743 -53.1242 25.7270
16.4644 -59.5261 16.0882
16.4644 -59.5261 48.2950
28.3536 -44.8932 53.5877
28.3536 -44.8932 22.2875
-22.7855 -50.3286 6.3598
-22.8617 -50.3805 22.4177
10.9770 -56.7825 12.3935
10.9770 -56.7825 44.9366
22.8663 -42.1495 48.8342
22.8663 -42.1495 23.5152
5.4897 -54.0388 37.3887
5.4897 -54.0388 9.1524
17.3223 -39.2481 28.0022
0.0023 -51.2951 33.4078
0.0023 -51.2951 5.5357
33.8410 -57.6970 49.2519
16.7959 -69.5247 27.7697
45.7303 -43.0641 32.9197
16.4644 -69.5863 20.0142
45.7303 -43.0641 45.4929
-5.4851 -48.5514 29.2081
-5.4851 -48.5514 5.2411
28.3536 -54.9533 24.3877
28.3536 -54.9533 53.7935
10.9770 -66.8426 14.1272
10.9770 -66.8426 41.3836
40.2429 -40.3204 29.7220
40.2429 -40.3204 50.6600
-10.9724 -45.8078 24.7359
-10.9724 -45.8078 3.9346
22.8663 -52.2097 50.9939
22.8663 -52.2097 19.9157
5.4897 -64.0989 41.2088
5.4897 -64.0989 11.6338
34.7556 -37.5767 51.2191
34.7556 -37.5767 27.5938
-16.4598 -43.0641 1.9133
-16.4598 -43.0641 22.3238
17.3789 -49.4660 19.4765
17.3789 -49.4660 43.2593
29.2682 -34.8330 48.9814
0.0023 -61.3553 8.1464
0.0023 -61.3553 36.5988
29.2682 -34.8330 28.5816
-21.9845 -40.1640 6.8598
11.8916 -46.7223 21.6772
11.8916 -46.7223 37.4251
-5.4851 -58.6116 5.6760
-5.4851 -58.6116 34.9518
28.3536 -65.0135 38.0184
28.3536 -65.0135 28.9850
6.4042 -43.9786 30.5079
6.4042 -43.9786 14.9634
40.2429 -50.3805 32.7548
40.2429 -50.3805 50.5521
-10.9724 -55.8679 3.7758
-10.9724 -55.8679 30.7321
22.8663 -62.2698 49.5494
22.8663 -62.2698 22.4956
0.4645 -41.3909 22.1816
1.1305 -41.7133 16.6025
34.7556 -47.6369 27.0135
34.7556 -47.6369 54.1183
-16.4598 -53.1242 1.7202
-16.4598 -53.1242 26.1089
17.3789 -59.5261 48.7579
17.3789 -59.5261 16.8736
29.2682 -44.8932 54.1843
29.2682 -44.8932 22.6513
-21.9024 -50.1650 3.5407
-21.9471 -50.3805 23.1894
11.8916 -56.7825 12.7749
11.8916 -56.7825 45.3904
23.7808 -42.1495 23.0545
23.7808 -42.1495 50.3935
6.4042 -54.0388 9.9849
18.2935 -39.4058 27.2734
0.9169 -51.2951 33.5792
0.9169 -51.2951 5.8028
34.7556 -57.6970 48.3445
34.7556 -57.6970 30.7389
17.4676 -69.4963 27.5832
46.6448 -43.0641 38.3302
17.3789 -69.5863 20.4601
46.6448 -43.0641 42.7166
-4.5705 -48.5514 29.5936
-4.5705 -48.5514 5.3298
29.2682 -54.9533 25.8799
29.2682 -54.9533 53.9529
11.8916 -66.8426 14.5695
41.1575 -40.3204 30.3376
11.8916 -66.8426 40.9154
41.1575 -40.3204 50.4173
-10.0579 -45.8078 24.8144
-10.0579 -45.8078 4.2991
23.7808 -52.2097 51.5612
23.7808 -52.2097 20.2806
6.4042 -64.0989 41.9191
6.4042 -64.0989 11.7468
35.6701 -37.5767 50.6156
35.6701 -37.5767 27.9102
-15.5452 -43.0641 2.3969
-15.5452 -43.0641 22.4519
18.2935 -49.4660 19.7109
18.2935 -49.4660 44.0194
0.9169 -61.3553 37.5767
0.9169 -61.3553 8.6761
30.1828 -34.8330 28.4418
30.1828 -34.8330 49.7228
-21.1952 -40.0552 5.7262
-21.0326 -40.3204 20.4818
12.8061 -46.7223 38.0725
12.8061 -46.7223 21.7103
-4.5705 -58.6116 5.6007
-4.5705 -58.6116 34.8394
29.2682 -65.0135 36.8469
29.2682 -65.0135 30.4493
7.4679 -44.2893 18.5997
7.3188 -43.9786 30.8588
41.1575 -50.3805 33.6327
41.1575 -50.3805 49.5561
-10.0579 -55.8679 3.9648
-10.0579 -55.8679 31.3971
23.7808 -62.2698 49.4180
23.7808 -62.2698 23.2664
1.7024 -41.1466 21.0342
2.2309 -41.7676 17.1810
35.6701 -47.6369 53.8229
35.6701 -47.6369 27.9574
-15.5452 -53.1242 1.6762
18.2935 -59.5261 49.2027
18.2935 -59.5261 17.7150
30.1828 -44.8932 54.6521
30.1828 -44.8932 23.1252
-21.0326 -50.3805 23.7021
-21.0326 -50.3805 0.7849
12.8061 -56.7825 13.1859
12.8061 -56.7825 45.8920
24.6954 -42.1495 51.1130
24.6954 -42.1495 22.8157
-26.4364 -47.1251 12.5324
-26.5199 -47.6369 18.6955
7.3188 -54.0388 10.8726
7.3188 -54.0388 39.5710
19.2080 -39.4058 27.1614
19.2080 -39.4058 41.5312
1.8314 -51.2951 6.2564
1.8314 -51.2951 33.8043
35.6701 -57.6970 31.3591
-3.6559 -48.5514 29.7735
-3.6559 -48.5514 5.5563
30.1828 -54.9533 27.1796
30.1828 -54.9533 54.0321
12.8061 -66.8426 40.5500
12.8061 -66.8426 15.3676
42.0720 -40.3204 30.8811
42.0720 -40.3204 50.1224
-9.1433 -45.8078 25.1404
24.6954 -52.2097 20.7230
7.3188 -64.0989 42.3624
7.3188 -64.0989 11.8954
36.5847 -37.5767 50.1771
36.5847 -37.5767 28.3037
-14.6307 -43.0641 2.9286
-14.6307 -43.0641 22.5792
19.2080 -49.4660 19.9694
19.2080 -49.4660 44.8361
1.8314 -61.3553 9.2209
31.0973 -34.8330 50.1807
31.0973 -34.8330 28.4105
-20.0501 -39.9852 4.0313
-20.1180 -40.3204 20.7267
13.7207 -46.7223 38.6742
13.7207 -46.7223 21.6306
-3.6559 -58.6116 5.6425
25.6100 -32.0894 35.4392
8.0156 -44.1500 19.6765
42.0720 -50.3805 34.5084
42.0720 -50.3805 48.2382
-9.1433 -55.8679 4.1559
-9.1433 -55.8679 32.0346
24.6954 -62.2698 49.2063
24.6954 -62.2698 24.0741
2.3699 -41.1820 20.9464
3.3385 -41.7271 17.9464
36.5847 -47.6369 29.2296
36.5847 -47.6369 53.5070
-14.6307 -53.1242 27.0534
-14.6307 -53.1242 1.7054
19.2080 -59.5261 49.5836
19.2080 -59.5261 18.6020
31.0973 -44.8932 54.8730
31.0973 -44.8932 23.6300
-20.1180 -50.3805 24.0649
-20.1180 -50.3805 0.2493
13.7207 -56.7825 46.4183
13.7207 -56.7825 13.6311
25.6100 -42.1495 51.4936
25.6100 -42.1495 22.7102
-25.8149 -47.3901 11.4827
-25.6054 -47.6369 20.0295
8.2333 -54.0388 40.7731
8.2333 -54.0388 11.5351
20.1226 -39.4058 27.2384
20.1226 -39.4058 42.3996
2.7460 -51.2951 6.7825
2.7460 -51.2951 34.1005
36.5847 -57.6970 46.7774
19.5035 -69.6687 23.6526
19.2080 -69.5863 21.6325
-2.7414 -48.5514 29.8009
-2.7414 -48.5514 5.7986
31.0973 -54.9533 28.0913
31.0973 -54.9533 54.0666
14.0340 -66.8566 40.7048
42.9866 -40.3204 49.5503
13.7207 -66.8426 16.1160
42.9866 -40.3204 31.3021
-8.2287 -45.8078 4.8358
25.6100 -52.2097 52.7327
25.6100 -52.2097 21.1702
8.2333 -64.0989 42.6678
8.2333 -64.0989 12.1240
37.4992 -37.5767 28.7880
37.4992 -37.5767 49.9430
-13.7161 -43.0641 3.3697
-13.7161 -43.0641 22.6319
20.1226 -49.4660 20.2442
2.7460 -61.3553 9.7092
2.7460 -61.3553 39.2514
32.0119 -34.8330 28.4942
32.0119 -34.8330 50.4845
-19.1806 -39.9264 3.0223
-19.2035 -40.3204 20.8836
14.6352 -46.7223 21.6481
14.6352 -46.7223 39.2801
-2.7414 -58.6116 5.8205
-2.7414 -58.6116 34.9102
26.5245 -32.0894 43.2312
26.5245 -32.0894 33.9080
9.2829 -44.2692 21.4087
9.1479 -43.9786 31.3390
42.9866 -50.3805 35.4692
42.9866 -50.3805 46.3262
-8.2287 -55.8679 4.3015
-8.2287 -55.8679 32.6287
25.6100 -62.2698 24.8967
25.6100 -62.2698 48.9261
3.5310 -41.2928 21.4128
4.1511 -41.8391 18.2639
37.4992 -47.6369 30.1992
37.4992 -47.6369 53.1282
-13.7161 -53.1242 27.6102
20.1226 -59.5261 49.8842
20.1226 -59.5261 19.3510
32.0119 -44.8932 54.7862
32.0119 -44.8932 24.1383
-19.2035 -50.3805 24.3285
-19.2035 -50.3805 -0.0797
14.6352 -56.7825 47.0352
14.6352 -56.7825 14.1782
26.5245 -42.1495 51.8408
-2.7414 -68.6717 21.6984
26.5245 -42.1495 22.7051
-24.5665 -47.2539 8.9218
-24.6908 -47.6369 21.2382
9.1479 -54.0388 41.8968
21.0372 -39.4058 27.3242
21.0372 -39.4058 43.1673
3.6605 -51.2951 7.2936
3.6605 -51.2951 34.5309
37.4992 -57.6970 33.0659
37.4992 -57.6970 45.9425
20.4122 -69.6924 27.2577
20.1226 -69.5863 22.4711
-1.8268 -48.5514 29.8297
-1.8268 -48.5514 5.9456
32.0119 -54.9533 28.6943
15.0340 -66.8879 40.7524
14.6352 -66.8426 16.6801
43.9011 -40.3204 48.5972
43.9011 -40.3204 31.5640
-7.3142 -45.8078 26.1565
-7.3142 -45.8078 5.0129
26.5245 -52.2097 21.7227
26.5245 -52.2097 53.3437
9.1479 -64.0989 42.9647
9.1479 -64.0989 12.4248
38.4138 -37.5767 29.3557
38.4138 -37.5767 49.8109
-12.8015 -43.0641 3.6666
-12.8015 -43.0641 22.5656
21.0372 -49.4660 47.0057
21.0372 -49.4660 20.6159
3.6605 -61.3553 40.1732
3.6605 -61.3553 10.1521
32.9264 -34.8330 28.6931
32.9264 -34.8330 50.4449
-18.2889 -40.3204 2.1628
-18.2889 -40.3204 21.0034
15.5498 -46.7223 21.7344
15.5498 -46.7223 40.0018
-1.8268 -58.6116 35.1329
-1.8268 -58.6116 6.1460
27.4391 -32.0894 44.5095
-23.6439 -37.8221 10.6737
10.5307 -44.3663 23.3210
10.0625 -43.9786 31.7268
-7.3142 -55.8679 33.0625
-7.3142 -55.8679 4.4034
26.5245 -62.2698 25.7374
4.2091 -41.3257 21.5373
5.0334 -41.7735 19.0065
38.4138 -47.6369 52.7024
38.4138 -47.6369 30.9446
-12.8015 -53.1242 2.0936
-12.8015 -53.1242 28.2082
21.0372 -59.5261 50.1380
21.0372 -59.5261 20.0756
32.9264 -44.8932 24.6528
32.9264 -44.8932 54.4640
-18.2889 -50.3805 24.5790
-18.2889 -50.3805 -0.1697
15.5498 -56.7825 14.9825
15.5498 -56.7825 47.7367
27.4391 -42.1495 52.2974
-1.8268 -68.6717 18.4969
-1.8268 -68.6717 29.1204
27.4391 -42.1495 22.8014
-23.5260 -47.1548 6.3887
-23.7762 -47.6369 22.1399
10.0625 -54.0388 42.6555
10.0625 -54.0388 12.2460
21.9517 -39.4058 43.8821
21.9517 -39.4058 26.8173
4.5751 -51.2951 7.8103
4.5751 -51.2951 35.0841
38.4138 -57.6970 34.3613
38.4138 -57.6970 44.9597
21.2811 -69.6609 29.9809
21.0372 -69.5863 23.4950
-0.9123 -48.5514 30.0592
-0.9123 -48.5514 6.1885
32.9264 -54.9533 29.0695
32.9264 -54.9533 53.6902
44.9891 -39.9024 46.2357
15.9805 -66.9090 40.7770
44.8157 -40.3204 31.8860
15.5498 -66.8426 17.2075
-6.3996 -45.8078 26.5833
-6.3996 -45.8078 5.1907
27.4391 -52.2097 53.8923
27.4391 -52.2097 22.3124
39.3284 -37.5767 29.9809
39.3284 -37.5767 49.6003
10.0625 -64.0989 12.6979
10.0625 -64.0989 43.3069
-11.8870 -43.0641 3.7192
-11.8870 -43.0641 22.3753
21.9517 -49.4660 48.9123
21.9517 -49.4660 20.9066
4.5751 -61.3553 41.2748
4.5751 -61.3553 10.5110
33.8410 -34.8330 28.9339
33.8410 -34.8330 50.0941
-17.3743 -40.3204 2.1686
16.4644 -46.7223 21.7598
16.4644 -46.7223 40.8475
28.3536 -32.0894 32.2906
-0.9123 -58.6116 35.5434
-0.9123 -58.6116 6.6238
28.3536 -32.0894 45.3887
-22.3791 -37.5668 9.6528
-22.8617 -37.5767 14.4588
11.3778 -44.1127 23.8528
10.9770 -43.9786 32.5737
-6.3996 -55.8679 33.3461
-6.3996 -55.8679 4.4920
27.4391 -62.2698 26.7218
27.4391 -62.2698 48.0171
5.0500 -41.3470 21.6462
6.0621 -41.8801 19.7226
39.3284 -47.6369 31.5591
-11.8870 -53.1242 2.4721
-11.8870 -53.1242 28.8187
21.9517 -59.5261 50.2166
21.9517 -59.5261 20.8698
33.8410 -44.8932 25.2007
33.8410 -44.8932 54.1681
-17.3743 -50.3805 24.7829
-17.3743 -50.3805 -0.1150
16.4644 -56.7825 16.0859
16.4644 -56.7825 48.4393
28.3536 -42.1495 52.7872
-0.9123 -68.6717 29.5110
-0.9123 -68.6717 17.6919
28.3536 -42.1495 22.9833
-22.7087 -47.2494 4.5921
-22.8617 -47.6369 22.7019
10.9770 -54.0388 12.5850
10.9770 -54.0388 43.2122
22.8663 -39.4058 25.6198
22.8663 -39.4058 44.6204
5.4897 -51.2951 8.5094
39.3284 -57.6970 43.7358
39.3284 -57.6970 36.4674
22.1804 -69.7265 33.5981
21.9517 -69.5863 24.7204
0.0023 -48.5514 6.5242
0.0023 -48.5514 30.5876
33.8410 -54.9533 29.3787
33.8414 -54.9535 53.0844
-17.6771 -60.5131 18.0160
-16.8819 -60.3765 15.9378
16.9145 -66.9182 40.7966
45.7303 -40.3204 32.3962
16.4644 -66.8426 17.7767
45.7303 -40.3204 45.1574
-5.4851 -45.8078 26.6440
-5.4851 -45.8078 5.3640
28.3536 -52.2097 54.3126
40.2429 -37.5767 49.2115
10.9770 -64.0989 43.7374
40.2429 -37.5767 30.5517
10.9770 -64.0989 13.0316
-10.9724 -43.0641 3.6550
-10.9724 -43.0641 22.4328
22.8663 -49.4660 21.1674
5.4897 -61.3553 10.8320
34.7556 -34.8330 49.4631
5.4897 -61.3553 42.2621
34.7556 -34.8330 29.1929
-16.4598 -40.3204 2.2936
-16.4598 -40.3204 21.0316
17.3789 -46.7223 21.7939
17.3789 -46.7223 41.7046
0.0023 -58.6116 7.1638
29.2682 -32.0894 31.8005
29.2682 -32.0894 45.9218
0.0023 -58.6116 36.3785
-21.7336 -37.8259 8.5667
-21.9471 -37.5767 15.6677
11.8916 -43.9786 24.2479
-5.4851 -55.8679 33.5188
28.3536 -62.2698 27.7384
28.3536 -62.2698 47.2316
6.2322 -41.4011 22.2326
6.8223 -42.0358 20.1098
40.2429 -47.6369 32.1914
40.2429 -47.6369 51.5421
-10.9724 -53.1242 29.5257
-10.9724 -53.1242 2.8901
22.8663 -59.5261 50.2230
22.8663 -59.5261 21.7337
34.7556 -44.8932 53.9650
-16.4598 -50.3805 24.9651
-16.4598 -50.3805 0.0705
17.3789 -56.7825 49.0783
17.3789 -56.7825 17.1008
0.0023 -68.6717 29.6184
0.0023 -68.6717 17.2151
29.2682 -42.1495 23.2478
29.2682 -42.1495 53.2259
-21.7493 -47.4585 2.5352
-21.9471 -47.6369 23.0023
11.8916 -54.0388 43.6560
11.8916 -54.0388 12.9624
-5.4851 -65.9281 29.5994
6.4042 -51.2951 9.6132
6.4042 -51.2951 36.3022
22.8663 -69.5863 34.9269
22.8663 -69.5863 25.7819
0.9169 -48.5514 7.0709
0.9169 -48.5514 31.2204
34.7556 -54.9533 52.3386
34.7556 -54.9533 29.7522
-16.9492 -60.5829 17.7813
-16.1227 -60.4132 16.1378
-16.8055 -60.1684 15.1578
-16.4598 -60.4407 22.2561
17.8433 -66.9213 40.8085
17.3789 -66.8426 18.4361
46.6448 -40.3204 39.8068
-4.5705 -45.8078 26.4087
-4.5705 -45.8078 5.7414
29.2682 -52.2097 54.6830
-21.8505 -57.4881 16.1651
-21.9471 -57.6970 18.0056
11.8916 -64.0989 44.2173
11.8916 -64.0989 13.4561
41.1575 -37.5767 48.5919
41.1575 -37.5767 30.9733
-10.0579 -43.0641 3.7837
-10.0579 -43.0641 22.6818
23.7808 -49.4660 21.4233
23.7808 -49.4660 51.1925
6.4042 -61.3553 11.1427
35.6701 -34.8330 48.8704
6.4042 -61.3553 42.9258
35.6701 -34.8330 29.4469
-15.5452 -40.3204 2.5287
-15.5452 -40.3204 20.9531
18.2935 -46.7223 21.7424
18.2935 -46.7223 42.5060
0.9169 -58.6116 7.7071
30.1828 -32.0894 46.4014
0.9169 -58.6116 37.4389
30.1828 -32.0894 31.5119
-21.0657 -37.7684 7.6540
-21.0326 -37.5767 16.3521
12.8061 -43.9786 35.3144
12.8061 -43.9786 24.1229
-4.5705 -55.8679 33.6671
-4.5705 -55.8679 4.8396
29.2682 -62.2698 28.6449
6.9049 -41.4372 22.3881
7.6928 -41.9900 20.8708
41.1575 -47.6369 32.8229
41.1575 -47.6369 50.8156
-10.0579 -53.1242 30.4758
-10.0579 -53.1242 3.2592
23.7808 -59.5261 50.2103
23.7808 -59.5261 22.5536
35.6701 -44.8932 26.0886
35.6701 -44.8932 53.7131
-15.5452 -50.3805 25.1547
-15.5452 -50.3805 0.4539
18.2935 -56.7825 49.6354
18.2935 -56.7825 17.8629
0.9169 -68.6717 29.7461
0.9169 -68.6717 16.8060
30.1828 -42.1495 23.5341
30.1828 -42.1495 53.5992
-21.0326 -47.6369 23.1939
-21.0326 -47.6369 1.0045
12.8061 -54.0388 44.1943
12.8061 -54.0388 13.3263
24.6954 -39.4058 24.2189
24.6954 -39.4058 49.0054
-4.5705 -65.9281 30.4419
-26.4733 -44.5756 12.4937
-26.5199 -44.8932 19.1552
7.3188 -51.2951 11.5192
7.3188 -51.2951 36.8765
19.6634 -36.6477 30.8385
19.2080 -36.6622 35.9113
23.7808 -69.5863 26.8538
23.7808 -69.5863 34.4912
1.8314 -48.5514 7.8189
1.8314 -48.5514 31.7840
35.6701 -54.9533 51.6524
-15.9434 -60.5480 17.2118
-15.5232 -60.4977 16.4851
-15.8986 -60.1476 15.0133
-15.5452 -60.4407 24.4404
18.7672 -66.9216 40.8112
18.2935 -66.8426 19.1383
-3.6559 -45.8078 26.0095
30.1828 -52.2097 55.0265
30.1828 -52.2097 25.3710
-21.2582 -57.5877 15.1758
12.8061 -64.0989 13.9743
12.8061 -64.0989 44.7635
42.0720 -37.5767 47.9508
42.0720 -37.5767 31.3581
-9.1433 -43.0641 4.0262
-9.1433 -43.0641 23.1334
24.6954 -49.4660 21.6349
24.6954 -49.4660 51.8033
-26.5128 -54.1891 15.1484
-26.5199 -54.9533 16.1661
36.5847 -34.8330 29.7922
7.3188 -61.3553 43.3854
36.5847 -34.8330 48.4145
7.3188 -61.3553 11.5148
-14.6307 -40.3204 2.8417
-14.6307 -40.3204 20.7962
19.2080 -46.7223 21.6775
19.2080 -46.7223 43.2441
1.8314 -58.6116 38.3142
1.8314 -58.6116 8.1846
31.0973 -32.0894 31.4404
31.0973 -32.0894 46.8427
-20.1180 -37.5767 16.8322
-20.1180 -37.5767 5.0544
13.7207 -43.9786 24.2391
13.7207 -43.9786 36.5893
-3.6559 -55.8679 5.1539
-3.6559 -55.8679 33.7468
30.1828 -62.2698 42.0314
30.1828 -62.2698 29.5114
7.7069 -41.4687 22.5290
8.2425 -42.0919 21.2238
42.0720 -47.6369 33.4155
42.0720 -47.6369 49.8311
-9.1433 -53.1242 3.5587
-9.1433 -53.1242 31.3110
24.6954 -59.5261 50.2383
24.6954 -59.5261 23.3095
36.5847 -44.8932 26.7562
36.5847 -44.8932 53.3820
-14.6307 -50.3805 0.9415
-14.6307 -50.3805 25.3979
19.2080 -56.7825 18.4543
19.2080 -56.7825 50.0384
1.8314 -68.6717 16.3646
1.8314 -68.6717 29.9525
31.0973 -42.1495 23.8466
31.0973 -42.1495 53.8617
-20.1180 -47.6369 23.1827
-20.1180 -47.6369 0.4833
-3.6559 -65.9281 16.3079
-3.6559 -65.9281 30.9145
25.6100 -39.4058 24.1132
25.6100 -39.4058 50.0125
-25.7533 -44.7304 11.0843
-25.6054 -44.8932 20.1500
8.2333 -51.2951 12.9366
-9.1433 -63.1844 27.9173
20.1226 -36.6622 30.4093
-9.1433 -63.1844 21.0009
20.1226 -36.6622 36.9470
24.6954 -69.5863 28.0335
24.6954 -69.5863 33.6244
2.7460 -48.5514 32.3127
2.7460 -48.5514 8.4655
36.5847 -54.9533 51.0103
36.5847 -54.9533 30.6802
-14.3920 -60.2160 14.5481
-14.6307 -60.4407 25.5432
19.6873 -66.9188 40.8023
19.2080 -66.8426 19.8699
-2.7414 -45.8078 7.1825
31.0973 -52.2097 55.2964
31.0973 -52.2097 27.2372
-20.1922 -57.5875 13.4559
-20.1180 -57.6970 23.7074
42.9866 -37.5767 46.9644
13.7207 -64.0989 14.5649
42.9866 -37.5767 31.7776
13.7207 -64.0989 45.3725
-8.2287 -43.0641 4.3458
-8.2287 -43.0641 23.8022
25.6100 -49.4660 52.3367
25.6100 -49.4660 21.8205
-25.1957 -54.4412 13.4161
8.2333 -61.3553 43.7235
8.2333 -61.3553 11.8942
37.4992 -34.8330 48.0985
-13.7161 -40.3204 20.6135
-13.7161 -40.3204 3.1058
20.1226 -46.7223 21.7304
2.7460 -58.6116 39.1384
2.7460 -58.6116 8.6403
32.0119 -32.0894 31.5226
32.0119 -32.0894 47.2039
-19.2035 -37.5767 4.4418
-19.2035 -37.5767 17.1549
14.6352 -43.9786 24.4225
14.6352 -43.9786 37.7511
-2.7414 -55.8679 5.4497
-2.7414 -55.8679 33.8049
31.0973 -62.2698 41.7445
31.0973 -62.2698 30.4911
8.7417 -41.5151 23.0494
9.0728 -42.1706 21.9103
42.9866 -47.6369 33.9659
42.9871 -47.6369 48.5132
-8.2287 -53.1242 31.9461
-8.2287 -53.1242 3.8199
25.6100 -59.5261 50.1926
25.6100 -59.5261 24.1051
37.4992 -44.8932 53.0131
37.4992 -44.8932 27.9101
-13.7161 -50.3805 1.4547
-13.7161 -50.3805 25.7392
20.1226 -56.7825 18.9832
20.1226 -56.7825 50.2608
2.7789 -68.8273 30.1865
32.0119 -42.1495 24.2635
2.7460 -68.6717 15.9432
32.0119 -42.1495 53.9537
-19.2035 -47.6369 23.0942
-19.2035 -47.6369 0.2087
14.6352 -54.0388 45.5103
14.6352 -54.0388 14.5105
-2.7414 -65.9281 31.2786
26.5245 -39.4058 24.1578
26.5245 -39.4058 50.6831
-24.8123 -44.7182 9.1913
-24.6908 -44.8932 21.0472
9.1479 -51.2951 38.3177
9.1479 -51.2951 13.8782
21.0372 -36.6622 30.3992
-8.2287 -63.1844 19.7651
-8.2287 -63.1844 29.9556
3.7185 -48.6849 8.9189
3.6605 -48.5514 32.9052
37.4992 -54.9533 31.2731
-13.8283 -60.2857 14.4150
-13.7161 -60.4407 26.3361
20.6077 -66.9093 40.7740
20.1226 -66.8426 20.7223
-1.8268 -45.8078 7.8434
-1.8268 -45.8078 25.2726
32.0119 -52.2097 55.3960
32.0119 -52.2097 28.1076
-19.4507 -57.6140 12.5606
-19.2035 -57.6970 23.2745
43.9011 -37.5767 32.3395
14.6352 -64.0989 45.9292
14.6352 -64.0989 15.1846
43.8999 -37.5763 44.8529
-7.3142 -43.0641 24.4889
-7.3142 -43.0641 4.7004
26.5245 -49.4660 52.8992
-24.7481 -54.1620 12.5219
-24.6908 -54.9533 18.3934
9.1479 -61.3553 44.1265
9.1479 -61.3553 12.2865
38.4138 -34.8330 47.8954
38.4138 -34.8330 30.6607
-12.8015 -40.3204 20.3702
-12.8015 -40.3204 3.3560
21.0372 -46.7223 21.8897
21.0372 -46.7223 45.4450
32.9264 -32.0894 31.7590
3.6605 -58.6116 39.8809
32.9264 -32.0894 47.3644
-18.2889 -37.5767 4.0882
-18.2889 -37.5767 17.2731
15.5498 -43.9786 24.3880
15.5498 -43.9786 38.7937
-1.8268 -55.8679 5.7305
-1.8268 -55.8679 33.8749
32.0119 -62.2698 41.6339
32.0119 -62.2698 31.6054
9.2567 -41.6044 23.2190
9.9940 -42.0576 22.7361
43.9011 -47.6369 46.7775
43.9011 -47.6369 34.5364
-7.3142 -53.1242 4.0698
-7.3142 -53.1242 32.3536
26.5245 -59.5261 24.9479
38.4138 -44.8932 52.6655
38.4138 -44.8932 29.6448
-12.8015 -50.3805 1.9612
-12.8015 -50.3805 26.1950
21.0372 -56.7825 19.4653
21.0372 -56.7825 50.3703
3.6898 -68.7986 30.9397
32.9231 -42.1497 24.7332
32.9264 -42.1495 53.8630
-18.2889 -47.6369 23.0390
-18.2889 -47.6369 0.1262
15.5498 -54.0388 15.7655
15.5498 -54.0388 46.3424
27.4391 -39.4058 24.2974
-1.8268 -65.9281 13.4085
-1.8268 -65.9281 31.6677
-23.7602 -44.7595 6.8371
-23.7762 -44.8932 21.6572
10.0625 -51.2951 14.8584
10.0625 -51.2951 39.1838
-7.3142 -63.1844 31.0755
21.9517 -36.6622 42.4965
4.7126 -48.7320 9.7615
4.5751 -48.5514 33.5887
38.4138 -54.9533 49.6110
38.4138 -54.9533 31.9963
-13.0180 -60.4088 14.1774
-12.8015 -60.4407 26.9019
21.5330 -66.8880 40.7118
21.0372 -66.8426 21.6408
-0.9123 -45.8078 25.2412
-0.9123 -45.8078 8.4786
32.9264 -52.2097 55.1914
32.9264 -52.2097 28.5169
-18.6580 -57.6508 11.7247
-18.2889 -57.6970 24.2161
15.5498 -64.0989 15.8037
15.5498 -64.0989 46.3714
44.8157 -37.5767 41.5661
44.8157 -37.5767 33.2540
-6.3996 -43.0641 24.8801
-6.3996 -43.0641 5.2237
27.4391 -49.4660 53.5465
27.4391 -49.4660 22.1185
-23.5641 -54.1928 10.6817
-23.7762 -54.9533 20.4040
10.0625 -61.3553 12.6668
10.0625 -61.3553 44.5898
39.3284 -34.8330 47.6726
39.3284 -34.8330 31.2681
-11.8870 -40.3204 20.3036
-11.8870 -40.3204 3.5591
21.9517 -46.7223 48.2526
33.8410 -32.0894 31.9993
4.5751 -58.6116 40.7997
4.5751 -58.6116 9.7550
33.8410 -32.0894 47.2758
-17.3743 -37.5767 3.9600
-17.3743 -37.5767 17.2683
16.4644 -43.9786 24.1547
16.4644 -43.9786 39.7513
-0.9123 -55.8679 6.0603
-0.9123 -55.8679 34.0343
32.9264 -62.2698 41.5855
32.9264 -62.2698 32.8280
10.1135 -41.7686 23.7852
10.4574 -42.1015 23.0148
44.8157 -47.6369 35.3475
44.8157 -47.6369 44.6463
-6.3996 -53.1242 4.3097
-6.3996 -53.1242 32.5992
27.4391 -59.5261 50.4084
27.4391 -59.5261 25.9533
39.3284 -44.8932 52.3315
39.3284 -44.8932 30.6028
-11.8870 -50.3805 2.4610
-11.8870 -50.3805 26.7763
21.9517 -56.7825 19.9640
21.9517 -56.7825 50.5468
33.8410 -42.1495 25.1646
4.5751 -68.6717 36.9985
4.5751 -68.6717 15.4467
33.8410 -42.1495 53.6887
-17.3743 -47.6369 23.0513
-17.3743 -47.6369 0.2575
16.4644 -54.0388 47.3515
16.4644 -54.0388 16.9338
-1.0332 -65.8539 12.5592
28.3536 -39.4058 24.5322
-0.9123 -65.9281 31.9898
28.3536 -39.4058 51.6382
-22.5723 -44.6012 4.5246
-22.8617 -44.8932 22.0638
10.9770 -51.2951 15.7040
10.9770 -51.2951 40.0462
22.8663 -36.6622 43.3900
-6.3996 -63.1844 13.4937
-6.3996 -63.1844 31.8350
22.8663 -36.6622 29.4720
5.4897 -48.5514 34.2716
39.3284 -54.9533 32.8614
39.3284 -54.9533 48.7063
-12.0982 -60.4532 13.3379
-11.8870 -60.4407 27.3051
22.4513 -66.8522 40.5982
21.9517 -66.8426 22.5038
0.0023 -45.8078 9.4308
0.0023 -45.8078 25.7825
33.8410 -52.2097 54.7942
33.8410 -52.2097 28.7717
-18.0386 -57.7820 11.3925
-17.3743 -57.6970 24.9781
45.7303 -37.5767 35.2555
16.4644 -64.0989 16.4123
-5.4851 -43.0641 5.8069
28.3536 -49.4660 54.2614
28.3536 -49.4660 22.2968
-22.5717 -54.2556 8.9797
-22.8617 -54.9533 24.3014
40.2429 -34.8330 31.9648
10.9770 -61.3553 13.0563
10.9770 -61.3553 45.0549
40.2429 -34.8330 47.1064
-10.9724 -40.3204 20.3512
-10.9724 -40.3204 3.7613
22.8663 -46.7223 22.1090
5.4897 -58.6116 41.8451
5.4897 -58.6116 10.3676
34.7556 -32.0894 32.2210
-16.4598 -37.5767 3.9841
-16.4598 -37.5767 17.2675
17.3789 -43.9786 40.7326
0.0023 -55.8679 6.5088
0.0023 -55.8679 34.3273
33.8410 -62.2698 41.4897
33.8410 -62.2698 34.1306
10.5399 -41.8490 23.7082
10.8056 -42.0254 23.5642
45.7303 -47.6369 37.1249
45.7303 -47.6369 41.8947
-5.4851 -53.1242 32.8275
-5.4851 -53.1242 4.5313
28.3536 -59.5261 50.4863
28.3536 -59.5261 26.8323
40.2429 -44.8932 51.9336
-10.9724 -50.3805 2.9421
-10.9724 -50.3805 27.3699
22.8663 -56.7825 50.7732
22.8663 -56.7825 20.5483
34.7556 -42.1495 25.5638
34.7556 -42.1495 53.4005
5.4897 -68.6717 15.3141
-16.4598 -47.6369 23.2855
-16.4598 -47.6369 0.5640
17.3789 -54.0388 48.4057
17.3789 -54.0388 17.6769
29.2682 -39.4058 52.0155
0.0023 -65.9281 32.4474
0.0023 -65.9281 11.9656
-21.8732 -44.6506 3.2150
-21.9471 -44.8932 22.2806
11.8916 -51.2951 16.2570
11.8916 -51.2951 40.7393
23.7808 -36.6622 44.1491
-5.4851 -63.1844 32.4081
6.4042 -48.5514 34.9204
6.4042 -48.5514 11.8136
40.2429 -54.9533 47.2928
40.2429 -54.9533 33.9789
