21.4902 -11.9401 20.7503
15.1512 -96.6445 31.1808
21.3493 -18.6250 35.2451
12.8288 -87.3037 37.5885
5.3443 -42.0624 29.5532
5.1302 -71.1365 20.0717
8.7177 -27.6440 17.1515
15.7066 -72.9521 24.5239
6.0412 -71.1365 20.1956
5.1139 -48.6501 18.5952
18.8225 -63.1439 24.6216
10.7155 -73.6564 37.2497
4.2997 -81.4265 27.1580
13.5149 -63.7659 36.8259
15.4669 -60.7359 22.5025
7.1213 -71.3320 20.6307
6.0412 -49.2725 31.3827
11.2953 -53.2612 37.9751
4.3829 -58.6424 23.1732
8.7619 -37.2284 15.5432
1.5671 -67.8610 24.1262
20.7031 -11.6149 31.7809
7.0786 -49.4437 31.4882
12.5614 -70.2850 23.5568
12.7172 -52.3130 39.1500
8.5687 -40.0711 31.9198
3.6471 -71.8111 28.6437
15.4756 -63.1147 36.9259
14.8839 -94.8466 37.6080
13.1203 -74.6311 37.5430
4.1942 -68.3232 20.3380
12.1267 -94.6871 35.1897
8.8959 -49.2862 33.4769
7.4113 -81.7288 32.1172
7.6090 -79.6497 22.5258
6.7260 -57.7355 18.7530
20.6451 -75.1925 35.4931
18.2960 -10.1038 31.5050
4.0517 -48.0344 30.0131
11.5547 -92.1331 27.6184
16.2266 -95.8304 31.8219
21.1390 -24.3939 36.1188
13.3208 -61.6066 22.0364
5.0698 -45.9366 18.9273
17.8357 -42.9468 38.2639
10.5903 -51.0236 37.3853
8.6561 -57.4586 18.3120
7.2991 -58.6736 30.4231
15.4848 -84.3106 38.6124
7.2443 -69.3205 21.7382
23.2788 -22.3730 35.2943
8.6473 -90.6728 24.9953
11.6885 -18.1908 29.5841
24.4182 -22.6425 34.4525
4.2708 -35.0683 26.1653
21.6274 -32.4195 35.4356
9.5739 -92.9691 34.3597
9.8377 -69.6930 22.6080
5.0245 -57.0180 21.0161
19.4501 -50.5645 22.5477
17.8300 -31.9265 36.3636
17.8761 -84.1488 37.8942
17.5437 -61.5456 37.0241
22.5519 -9.5310 29.3963
8.7742 -47.4505 32.3287
13.4837 -82.2219 38.3669
5.5028 -67.0073 20.1343
9.1710 -47.9541 32.8839
13.8303 -61.5056 37.2775
20.2695 -6.7259 21.4007
6.4427 -68.7347 29.9497
8.7329 -77.5567 35.7844
12.7013 -79.6692 38.0965
8.0029 -89.2917 24.4572
18.4939 -16.1568 16.7257
10.3285 -79.0129 37.2742
15.0371 -5.5370 18.6959
8.8605 -34.4859 15.2638
2.6222 -66.8383 27.8902
22.1142 -27.1526 22.9041
14.3015 -39.1596 37.6512
18.3995 -90.7916 33.2861
20.4135 -37.8985 20.7415
12.9836 -71.2051 37.6420
6.0564 -76.2545 22.5111
15.5971 -14.5621 16.0184
14.5818 -91.0397 38.0097
6.0070 -54.4599 17.8130
19.5491 -71.5711 36.9452
5.9924 -32.5238 19.5361
9.8843 -64.7763 32.7106
16.0925 -93.5976 38.4132
14.7157 -46.4626 20.0040
12.0089 -45.7397 18.5856
7.3837 -54.4954 17.5222
10.2121 -34.9080 15.0752
16.6449 -68.1414 23.4317
9.6808 -80.5193 22.6124
20.3079 -31.9648 21.0366
7.3316 -65.0786 19.4641
14.9226 -4.1378 20.4800
6.9495 -43.1346 17.1305
18.3729 -17.0346 32.7227
5.1330 -53.0255 17.9915
18.7822 -70.0921 36.9092
15.3349 -58.8173 38.3198
15.1939 -36.5408 36.8889
9.3327 -65.1246 19.9253
12.7052 -48.5815 39.3672
6.9924 -74.5285 21.6086
17.2782 -4.0087 20.4487
17.5794 -58.6823 38.1603
10.5913 -87.2709 23.8150
15.9519 -36.8111 37.0961
8.5123 -19.6484 27.7065
16.0904 -89.8617 39.0006
17.3893 -28.6830 36.2006
17.8676 -3.3349 20.7505
17.1819 -5.3028 28.8058
6.3327 -86.3278 26.2889
16.9865 -89.8203 38.9373
8.2997 -53.4388 17.5774
7.1829 -33.4419 29.3328
19.4876 -3.7240 21.6760
9.6794 -20.3769 16.5004
22.9098 -37.5824 32.2347
9.6411 -56.7635 34.3357
19.7062 -3.7224 27.7693
7.0269 -60.8373 19.2895
17.9251 -11.9976 16.8880
5.1074 -73.6124 21.5520
4.3377 -50.9839 18.8348
17.3552 -43.3448 20.1853
10.6522 -77.8950 37.6371
15.6543 -77.0849 25.4579
6.9218 -41.5007 16.6522
14.3343 -88.1773 38.7855
9.7444 -29.9692 15.9349
21.4408 -3.7754 27.4790
19.7760 -15.0595 33.4454
18.5171 -47.1373 38.0058
16.4142 -21.8833 17.2952
18.5271 -2.6392 23.6671
6.1959 -83.8667 25.2935
11.7001 -83.4224 24.5601
16.5897 -87.9882 39.0947
13.8249 -65.4145 36.8186
7.6017 -85.8084 31.0501
7.3934 -83.3280 24.0152
12.0732 -29.4513 16.3527
17.3641 -35.8511 36.6963
20.3205 -79.4391 33.3003
12.3270 -9.7904 17.8515
19.9087 -55.1190 30.5741
11.8064 -16.9703 16.1326
10.4894 -95.7323 34.6729
8.0352 -30.0952 29.6148
17.6313 -77.8751 36.5761
13.3234 -9.8113 16.9928
19.3825 -34.3040 20.1264
12.4182 -95.7335 34.9926
11.0097 -50.2882 18.5508
17.6714 -75.3819 26.2919
21.7215 -27.3944 36.0685
14.7179 -33.3786 35.6192
19.5494 -12.4717 32.3991
6.3461 -31.1776 28.1193
5.0117 -80.7429 25.1437
10.5833 -29.2229 16.0605
16.1012 -33.3114 36.3505
8.4745 -94.3048 33.5483
6.9522 -50.1835 32.1803
16.9191 -26.3979 35.5612
6.0799 -80.3079 23.6801
22.1050 -31.3425 23.6643
9.5737 -94.6857 27.0153
8.9902 -73.0314 35.1323
20.5399 -19.2017 18.8002
10.7079 -40.1913 33.4141
4.2192 -70.2255 20.3187
18.0709 -87.0145 38.3714
10.1523 -16.5947 16.3991
23.5012 -33.4955 29.1353
16.4292 -43.4673 38.8662
10.7715 -71.0138 23.0625
14.6161 -52.8465 39.5948
13.3281 -84.1780 38.3933
12.4339 -63.6526 36.4145
18.3463 -9.3235 18.0943
5.1302 -70.2255 20.0469
18.8067 -86.7922 37.3560
18.6402 -85.3737 32.5290
8.8333 -80.2568 22.4691
7.6334 -38.2149 30.2538
14.2161 -85.0327 38.6414
9.8842 -27.0839 16.8220
11.0823 -84.6621 35.4036
19.6867 -10.6364 31.7428
7.8259 -91.0055 25.2021
8.5981 -70.8306 32.7610
5.1617 -48.3913 30.8760
21.3222 -9.3582 30.4675
6.1588 -58.5264 19.7628
14.7754 -43.5899 39.1789
13.3681 -51.3714 39.5388
18.5862 -26.0374 19.0912
17.0169 -58.6987 23.2719
8.6815 -49.5226 18.2396
8.7605 -48.3589 32.3943
16.9998 -6.8500 18.8190
5.3323 -68.3450 20.3266
3.8203 -46.5439 29.0312
16.9844 -93.7488 38.0392
13.2757 -27.5284 16.8533
7.8611 -57.0145 18.1788
6.7912 -35.9816 17.2472
18.7359 -61.0838 36.3398
12.6244 -94.1582 35.6141
15.6039 -22.2441 33.2038
17.4115 -75.0670 36.7358
18.5512 -48.6847 21.4697
7.4359 -92.8885 32.5762
8.0676 -68.1516 21.9241
5.8587 -47.1370 30.7544
6.0315 -46.0819 18.4910
12.4033 -48.6190 18.7296
8.4882 -92.3209 33.5924
6.9124 -47.2844 30.9004
7.2216 -45.4990 18.2226
11.4878 -80.4351 37.7681
3.2118 -65.6477 22.0496
7.8879 -46.9925 31.7472
20.4956 -18.3970 34.8595
5.1300 -69.8527 29.1721
22.9493 -7.1379 23.9220
9.0723 -68.6380 33.3220
10.5675 -68.0094 22.7661
14.2615 -50.3735 39.7212
6.9684 -56.1371 18.0276
18.0141 -7.7381 30.5014
9.7859 -15.1115 16.9588
16.9669 -92.5163 38.6314
15.6358 -51.3389 39.6709
19.3734 -7.6336 30.2792
10.9090 -69.1271 36.4784
15.6610 -70.8775 37.1755
20.8770 -50.8676 35.8723
8.2184 -88.5519 24.2800
7.0699 -66.4138 19.8677
13.0232 -15.2061 28.9306
14.1051 -12.8613 15.5713
6.9958 -44.6849 31.7945
5.9672 -44.5873 18.2261
9.9008 -56.2951 18.6560
15.8608 -4.5693 19.7330
4.2232 -55.0148 28.2366
16.0622 -4.6334 19.3471
9.6197 -33.8709 15.1354
21.1355 -6.5630 28.9186
9.6609 -88.3048 23.8317
13.1049 -57.0326 20.8390
16.9101 -4.3970 19.8037
3.3349 -41.3742 27.1833
10.6494 -89.2340 34.4207
8.2924 -21.3942 16.9394
19.7136 -46.9181 21.8265
12.7660 -75.6635 24.2346
17.9658 -4.7177 20.3168
23.2671 -5.6102 25.3135
12.7890 -64.1947 22.3289
2.9462 -74.3332 25.8266
13.0765 -68.5065 37.3851
8.7895 -75.7483 22.1500
5.9138 -65.5525 19.9798
18.8758 -56.3637 26.0265
18.1510 -14.5355 32.1014
8.7295 -44.6425 18.0042
22.5472 -16.9660 34.4578
9.8874 -74.4416 22.5301
6.1306 -42.2613 17.2053
4.5348 -75.5005 29.2791
11.9970 -19.4481 16.4056
19.7642 -2.5024 22.3451
9.7463 -87.6015 33.6353
14.6189 -33.2968 16.8901
5.8075 -21.4939 21.3130
12.1521 -44.1506 18.3162
6.0636 -74.3565 21.4999
11.5242 -78.4618 37.9425
11.4292 -53.1480 18.9928
15.9150 -2.6179 24.5032
16.7965 -79.0925 36.9446
16.1537 -55.3797 39.0823
21.3813 -3.7105 23.5085
9.6561 -86.4991 23.4952
9.2355 -63.6811 19.3241
6.0766 -52.1438 17.4874
4.5036 -30.7848 22.1490
22.6336 -5.0222 24.3314
7.1189 -52.2784 17.4367
12.4261 -58.7917 37.1114
18.0689 -55.7769 23.7053
16.3570 -12.2867 16.1311
3.1182 -72.7176 28.1520
21.5657 -15.0497 33.6839
11.8007 -12.1503 17.3129
18.8016 -80.5499 35.7436
12.6657 -85.7320 27.1977
12.1045 -64.1252 22.0004
3.8293 -71.0540 20.8419
17.9247 -90.5557 38.4372
16.7825 -64.8321 22.7754
10.5962 -96.6445 28.4909
5.1371 -72.2492 20.5577
19.1632 -86.8207 34.6410
20.6172 -2.8114 23.0640
8.8018 -83.7923 23.3002
7.8411 -61.2132 18.9972
13.2865 -12.7904 15.8119
7.0836 -42.8934 31.4922
6.0949 -74.1702 30.3824
9.6601 -83.5038 23.0225
8.8453 -61.4355 18.9784
15.0773 -88.6243 39.0917
19.6530 -11.1258 18.3175
8.3634 -95.7173 32.8566
19.6707 -67.4061 35.4552
13.3292 -96.6445 34.7413
23.1607 -27.4000 35.3602
17.7979 -52.0371 21.7179
16.2289 -85.5619 29.7930
7.8421 -17.9267 17.9627
20.6320 -12.0009 19.1066
20.5532 -13.3463 32.8103
8.8286 -95.0488 27.4332
8.4168 -73.4418 21.6461
14.6914 -96.6043 30.7755
19.6299 -41.2294 20.6943
9.9592 -39.8253 16.2126
8.6728 -17.8554 16.9724
25.0509 -20.5828 30.6150
23.2410 -44.8345 33.0555
21.6411 -8.9112 21.9726
4.1548 -38.9375 28.2400
3.7618 -58.3826 27.2626
17.4208 -55.6602 38.7786
4.1775 -55.1890 22.7891
22.5471 -16.4094 27.9043
20.8328 -69.4091 34.8883
23.5094 -37.2282 26.5561
19.0792 -54.5167 24.9715
9.0480 -46.1079 33.5558
22.5689 -11.5957 24.0365
23.3196 -32.5884 26.3076
7.7841 -28.1547 17.8405
22.7922 -16.9189 30.0734
11.0703 -45.5419 37.5498
24.0443 -41.0215 32.0517
23.5733 -37.5734 28.5738
4.2688 -27.9586 22.1018
5.1324 -25.5916 20.7181
19.8736 -51.6332 23.7030
19.7098 -49.2629 37.2589
11.5119 -65.8802 35.6525
4.5021 -30.7885 24.9340
24.6670 -19.0195 32.2754
3.7423 -53.1804 24.4931
23.3850 -42.9823 33.5887
8.9579 -44.1036 33.3871
5.1648 -43.5203 18.5701
13.3275 -4.9486 20.7558
7.8060 -40.0020 16.2364
4.8393 -64.4464 20.8965
9.0878 -61.7662 31.8012
3.6441 -54.4932 27.1532
19.7222 -84.2283 34.4401
18.6992 -70.4506 26.4216
14.5806 -3.7220 20.7742
7.8616 -95.7407 28.9754
13.9066 -19.2910 31.6044
19.5345 -83.3593 35.2815
22.2075 -14.9469 28.0425
22.4293 -37.0856 33.2145
7.7795 -37.4467 15.9553
18.9889 -64.0300 35.4895
6.7626 -20.7645 19.2828
23.7788 -8.7116 26.3706
5.0461 -42.0041 19.2679
7.5866 -36.2483 16.0108
2.0804 -66.8856 23.1822
19.5551 -62.0701 34.8394
6.9996 -93.7273 27.2926
4.5762 -25.4574 22.2326
23.7406 -19.2910 34.5405
21.7785 -49.6946 29.0141
12.4113 -45.8944 38.9067
23.3416 -34.8880 28.1888
1.5320 -70.4956 26.2189
17.9003 -66.5287 23.5483
10.8836 -89.8872 26.3553
22.5019 -11.1871 29.4938
6.6742 -77.0930 31.7471
2.0280 -65.4723 23.9389
19.9897 -58.5533 30.9713
6.9480 -89.5745 25.1398
13.3653 -43.6263 38.9158
15.7962 -8.7977 29.7523
19.3351 -2.5513 23.0948
20.3481 -2.8036 23.3849
1.3204 -67.4418 26.1665
7.1269 -94.8296 30.4657
6.1657 -61.5941 19.9653
20.6575 -16.2274 34.3304
20.4666 -51.7645 25.9581
19.7132 -80.5345 34.5104
23.1494 -5.1473 26.2252
24.3781 -31.3898 31.0701
10.2228 -35.0805 31.1147
3.2303 -63.0253 23.8346
21.0519 -54.6125 34.2638
5.2525 -23.0272 22.4143
4.2534 -50.1299 29.7470
7.0248 -86.7956 25.3413
17.6574 -11.3737 31.5975
20.5767 -77.2672 34.3867
17.3477 -95.7335 33.5254
21.3925 -52.2100 33.6125
20.3063 -3.3371 26.8349
17.2547 -32.9805 18.2671
6.3161 -34.8051 18.9837
25.0155 -28.8196 31.6781
17.6997 -94.1622 33.4943
24.8862 -23.8156 29.2221
6.9323 -92.4467 31.5796
7.0322 -51.1873 32.4451
21.4684 -74.6123 34.4539
19.1679 -5.5366 28.8968
22.5577 -38.2364 24.5207
4.3795 -36.0115 25.1190
17.9956 -2.4423 26.1592
17.8265 -1.9023 26.2630
22.7873 -33.5924 33.2852
12.5250 -31.9930 32.2534
20.6971 -68.5492 32.1338
11.0501 -28.2375 30.8104
21.2335 -53.6540 35.3603
12.4828 -82.5455 25.2753
16.0939 -10.4994 16.4841
20.1599 -33.3228 35.8866
6.1312 -86.8377 27.8870
15.2506 -34.2458 36.2687
5.5386 -37.0771 22.4319
6.0274 -64.7717 28.9786
5.1488 -51.7047 17.8497
5.0002 -46.6150 30.3457
5.3481 -29.6721 20.4273
3.4858 -57.5063 25.9746
23.9901 -19.9065 27.0446
6.4572 -48.4678 18.3326
5.1187 -44.8481 30.6137
10.6688 -12.3811 18.8729
17.8185 -93.8857 35.6757
23.9516 -40.9217 29.2181
20.6779 -66.7598 33.0152
13.6574 -92.6733 37.0700
6.7243 -85.6760 30.2427
9.4093 -13.3617 23.2683
5.5974 -61.1348 28.7488
23.9629 -42.2883 30.9995
10.9189 -72.1420 37.3343
13.4530 -90.3812 37.0376
18.7913 -86.8065 33.5536
18.8584 -53.2721 23.3453
4.2367 -81.8006 28.5941
10.5228 -10.7868 23.0749
24.6536 -27.7263 33.5308
6.6268 -59.8578 29.5381
12.3945 -90.5864 35.6341
18.1661 -52.7723 38.7607
19.0412 -78.6858 29.4754
3.8466 -77.2753 28.0772
12.5037 -6.8446 19.4809
7.5040 -24.8817 17.9820
11.8956 -8.1487 23.0031
13.2982 -5.3304 19.8613
19.7453 -64.5895 34.4733
19.6997 -84.0734 33.2574
5.1145 -79.2331 30.9144
17.4113 -73.0034 25.2389
4.4396 -35.2419 27.0693
11.7057 -87.8218 35.8171
24.0749 -19.2731 28.5521
11.3948 -49.4449 38.4313
21.8623 -47.2454 35.4639
9.5625 -46.4472 34.6721
19.9330 -81.3468 31.3674
22.7560 -11.8413 25.8221
11.6348 -10.4060 24.6272
23.5329 -33.1010 27.4327
20.0907 -60.8553 32.4403
20.4541 -78.0511 31.2974
5.5127 -41.7506 18.0243
25.0025 -21.6650 33.4683
22.0264 -13.5356 30.1819
4.3134 -44.1621 20.7759
3.6127 -74.7805 28.0594
10.7607 -63.3443 20.1471
11.3086 -95.1179 27.8586
13.3795 -4.9159 21.8456
11.3591 -60.6160 19.8097
24.2415 -18.6646 33.5169
19.6036 -54.3699 28.2796
9.6601 -89.3551 24.4359
14.6139 -12.7679 29.6154
18.7542 -74.0369 27.6679
10.8324 -87.6893 24.2070
18.7705 -83.9288 36.9774
16.1943 -13.0219 31.0284
3.4516 -48.2435 26.4111
4.3132 -45.8816 23.4635
16.8016 -2.4894 23.3819
24.4381 -30.3924 28.3505
19.8815 -60.7101 34.2417
4.1089 -52.3541 28.4863
21.6974 -13.3057 31.4520
7.9653 -79.0748 33.6504
12.9190 -35.6335 33.4703
19.8986 -70.4765 30.2429
2.3810 -70.1137 27.9277
1.2618 -68.6314 25.3025
22.6119 -16.0835 33.5706
17.0404 -16.3786 16.2663
11.8670 -14.0707 16.1125
15.7422 -6.3497 28.5753
19.5202 -37.8538 36.1135
3.8492 -60.7176 23.9331
6.1771 -87.1407 27.1390
23.0651 -22.4192 23.7116
22.4797 -3.4720 25.1808
1.5490 -66.1713 25.2102
9.5591 -54.6935 34.8015
3.4780 -47.8433 28.9106
17.7928 -80.5925 36.7420
22.4673 -7.1138 28.3555
21.0107 -71.9659 32.0919
19.7470 -65.6199 26.3437
20.8313 -56.7340 34.4495
5.4698 -53.5272 30.1668
16.9839 -8.9116 30.6957
3.4340 -41.4956 26.3868
14.1976 -9.9548 16.7103
21.3257 -75.3296 33.5440
6.8375 -72.6343 31.3758
20.6021 -14.5427 18.3984
20.5564 -36.4354 35.4727
24.2985 -30.0951 33.3067
7.0631 -33.2010 17.6113
6.0339 -21.2010 23.8799
23.3884 -17.6835 23.7620
17.2797 -95.7335 35.3474
13.4106 -95.8441 35.2927
7.4603 -24.4365 27.7523
16.4008 -56.9226 22.6038
17.2815 -87.1952 31.6281
22.1206 -50.2392 33.0892
9.5956 -76.8119 36.8285
3.6642 -64.1968 28.0151
3.3068 -60.3769 25.3040
3.9985 -52.5233 19.9438
7.9799 -48.4339 31.7637
5.2174 -84.5499 27.1583
9.9017 -70.8122 36.0640
7.1249 -17.7147 24.4612
19.8769 -54.7704 37.4449
10.6094 -54.2765 36.7787
22.0071 -11.0591 22.4486
4.1108 -75.0383 24.0109
21.4687 -51.8428 34.4887
9.3257 -49.1036 34.7728
9.8623 -13.6880 24.6077
14.8253 -49.5815 20.0156
4.1045 -43.8949 29.0254
20.6846 -72.2259 36.4401
18.7435 -89.7327 36.9979
8.4392 -88.7055 32.4167
9.4437 -47.8886 34.4723
22.9801 -15.8583 24.6592
11.8299 -7.5274 20.9588
20.3661 -64.3610 30.5035
15.1919 -93.8854 38.0244
13.9699 -26.5489 33.3103
4.4113 -59.7788 27.9800
18.6935 -90.7537 34.4124
5.0874 -82.7417 30.4168
20.6588 -71.1407 36.4119
16.4690 -81.1333 27.9603
16.0365 -5.4705 18.9579
14.2067 -5.1182 18.9521
8.9768 -70.9597 21.9633
3.7369 -48.3413 20.4833
18.5601 -67.0321 36.1178
25.2742 -21.5055 32.1947
9.0347 -85.2160 32.6895
22.5952 -46.4267 34.5001
4.2681 -45.6895 19.9207
3.7343 -77.4349 27.0572
17.5450 -24.7802 18.0693
7.3530 -20.7158 18.0085
19.1608 -86.6145 35.9173
3.3299 -75.2944 27.1670
17.6544 -67.8741 36.6827
20.2113 -64.4732 32.8082
4.2656 -30.7639 23.5367
19.5345 -17.4237 17.6543
20.2331 -82.0307 32.9280
19.5716 -76.3544 29.1481
4.3124 -80.1609 29.6607
23.6829 -40.2375 33.0866
6.1409 -41.0664 17.1384
16.9018 -71.4467 24.5574
12.4013 -66.2848 36.6525
3.3234 -68.8443 21.1192
22.0616 -14.7408 31.2255
21.2769 -44.2716 36.1547
22.8595 -42.3752 34.4590
23.5629 -8.2221 24.9471
4.5267 -43.8477 19.6990
4.9288 -37.3351 28.6108
8.6330 -93.4917 26.4219
5.9340 -22.7552 20.2082
3.7295 -48.9242 24.4959
20.4993 -79.0667 32.4968
1.9385 -71.3065 27.1640
11.3380 -62.5605 34.9977
4.3024 -27.9133 23.4957
9.7080 -91.0207 25.8964
13.2837 -86.0781 38.2464
22.4990 -15.7233 32.5799
6.8283 -78.9093 32.0264
23.5575 -9.9003 26.6972
20.7275 -47.9799 23.3131
22.3749 -40.5426 34.7268
18.1269 -3.2457 21.4964
15.9850 -38.0230 18.3142
6.7533 -39.1121 16.8370
17.5754 -64.0656 36.2704
22.4594 -19.2615 35.2440
20.6199 -74.2459 30.9406
22.3011 -35.2006 33.4412
13.9065 -95.4482 29.5335
6.9300 -94.4163 28.9778
10.0941 -58.5597 18.8606
21.0862 -75.5321 32.5403
19.3943 -73.7532 29.0090
5.5942 -40.6000 19.8155
15.2107 -96.2953 31.5416
15.7245 -96.6445 31.7034
6.3969 -92.3085 27.7469
6.3998 -90.1550 26.1810
12.3117 -83.4029 37.9525
3.6979 -51.0898 27.0405
10.5814 -85.4289 23.4826
21.2743 -48.7901 25.1370
12.4343 -42.0194 37.7833
5.0300 -42.6511 21.9372
21.7177 -37.8714 34.4758
12.0832 -38.3070 33.7540
4.5511 -74.2842 29.1115
18.8537 -66.7816 24.6175
6.9872 -18.7790 20.1667
21.7162 -14.2999 32.4888
22.4157 -45.3849 28.4999
19.7918 -2.6397 23.5656
20.9729 -3.1943 25.2884
1.6071 -68.9688 27.1295
24.9318 -29.5635 29.8347
19.6169 -59.6379 35.7420
5.2121 -59.9662 21.9080
17.0387 -84.4449 38.3933
12.4040 -81.9887 38.1850
10.7189 -81.5916 23.1250
13.3273 -40.3370 37.6880
23.1836 -6.8112 27.3673
5.2599 -41.3355 22.5243
16.8803 -1.8701 24.6092
7.0690 -94.2005 31.5574
5.3815 -24.2619 24.2258
5.1111 -50.1982 31.0263
17.7716 -39.1155 37.1695
21.6403 -72.9041 34.0131
22.3898 -4.2381 27.1279
13.4184 -96.1610 34.6441
6.5388 -89.5574 28.6329
11.5407 -87.9716 26.3010
22.0662 -16.3087 20.0688
19.6601 -77.2428 35.4292
17.6491 -95.6609 34.4208
20.8556 -56.0111 35.8309
11.2491 -60.3133 35.7854
5.1116 -49.3129 31.1430
8.3754 -15.0301 22.3474
4.1001 -45.8196 24.5537
21.6913 -35.4615 34.4538
8.8323 -50.6339 34.2416
7.2666 -48.3761 30.7257
22.1986 -14.9696 20.8820
17.9285 -58.3191 24.1785
20.7155 -54.1931 36.5448
7.2925 -88.9844 30.5370
24.0371 -21.9310 26.2245
4.7582 -53.8346 18.7797
9.7076 -12.6950 21.3017
21.3873 -73.2405 35.3416
3.1933 -62.1055 27.2632
5.0761 -84.5016 28.4869
7.0930 -17.1629 23.4388
12.6790 -79.8874 24.4746
13.3851 -6.1969 18.7814
21.3993 -71.9401 35.3600
23.3739 -18.0008 26.7823
9.5243 -48.3615 33.5254
18.1852 -82.7632 29.8116
3.4933 -42.5628 28.0279
14.3647 -7.4479 17.9665
6.1222 -72.7319 20.5980
17.8630 -92.2575 37.8561
12.6613 -8.9966 25.6267
15.2310 -79.1796 25.7222
12.6139 -96.1085 34.2870
8.5387 -31.2676 16.2796
10.8591 -37.9091 32.2739
2.5412 -63.2363 25.1963
21.7229 -11.7242 30.9776
7.1652 -45.5504 31.7932
7.8350 -95.9318 30.3737
14.4229 -16.0215 30.5696
15.2316 -3.5129 21.2824
5.1490 -69.2924 20.2961
9.8800 -96.1822 28.7518
10.6302 -95.9659 28.0139
15.3486 -96.1071 34.3714
16.9398 -2.4913 26.2414
8.9568 -54.6439 17.8632
1.9511 -65.9094 27.1967
15.2960 -24.3371 17.2967
7.7643 -93.1666 26.2262
17.5712 -2.1473 24.8600
17.9268 -69.5877 24.7093
10.7460 -41.6271 34.4224
3.1789 -60.4378 26.2416
3.8592 -77.0961 25.9023
7.3516 -18.9452 25.8803
13.9207 -96.4918 31.0576
23.1590 -45.6450 31.7515
15.0656 -3.6199 24.7282
8.7742 -47.1811 32.6144
14.5618 -96.2681 31.6256
20.9010 -24.8215 21.3410
15.2583 -95.7372 30.7411
6.9021 -77.4011 22.4637
11.0463 -96.4264 31.1927
7.7923 -75.9578 22.0235
11.7268 -96.6666 28.7304
6.5540 -86.8213 29.1407
16.0473 -95.7289 37.1220
14.0378 -4.8790 20.0500
11.7702 -41.7925 36.7998
9.5235 -13.9183 19.5981
23.5551 -8.8973 27.5066
9.0254 -95.8376 28.4813
18.8349 -2.9335 27.4365
15.4772 -3.9371 26.2287
9.2976 -25.8859 17.0338
20.7542 -42.7639 22.4119
15.3666 -96.1385 32.1419
20.5569 -53.0977 31.6758
8.4269 -86.8926 24.0700
17.9363 -63.9962 23.4609
18.7872 -2.9188 22.4924
5.0682 -75.9236 23.1266
15.1512 -2.9225 21.6824
9.9454 -96.2542 29.5863
19.1229 -57.5677 37.6276
6.5133 -67.3835 20.3425
6.2375 -70.0988 20.7396
19.7604 -69.9382 36.5964
19.0410 -76.0845 36.1385
21.5282 -3.2891 27.1484
14.2492 -95.7760 36.2829
16.6259 -3.6314 27.3094
8.5674 -15.9869 18.0341
12.0008 -13.5619 26.4931
22.5013 -3.4730 26.1765
7.8370 -94.6250 27.1107
21.5274 -16.2149 34.4777
3.2374 -45.9428 27.6068
23.3951 -9.9112 25.0677
23.9180 -24.5909 25.3069
16.7842 -95.9399 34.4305
15.5551 -27.5438 17.2409
8.3747 -41.9840 16.4965
19.0688 -2.6928 24.9572
15.6803 -2.8903 23.6582
9.5669 -47.4661 33.3123
9.6852 -47.0670 32.6144
21.7693 -36.7148 22.2266
7.0549 -80.8628 23.1666
1.9306 -70.6217 24.3387
13.1533 -5.9538 23.7888
23.3766 -19.1030 23.2667
5.9733 -50.3074 31.7344
6.5261 -93.2016 30.3384
16.7775 -7.1716 29.9154
13.3735 -96.7580 29.8578
16.0769 -94.7532 37.9139
16.7846 -95.6600 36.4892
15.0303 -4.8964 19.5650
10.6229 -23.9938 29.9498
4.2343 -77.9326 29.1059
6.1621 -38.7721 18.1940
9.7850 -96.0266 27.9796
13.8957 -37.2126 36.1716
24.0627 -28.9036 34.4053
11.2810 -82.0840 37.1763
15.7449 -29.5506 35.6849
6.8935 -91.9530 26.1719
11.2739 -90.6044 34.7234
20.6208 -14.4650 33.5490
20.2635 -58.5544 32.9168
2.0551 -64.3654 26.2547
8.8084 -89.4055 24.3965
19.7062 -1.9268 22.5934
15.1512 -2.9545 22.5934
15.9242 -3.1615 21.8233
14.0828 -88.4025 29.3085
16.8636 -3.4151 21.2814
15.1592 -95.7326 37.0944
16.7379 -4.5131 28.0833
22.5976 -13.0929 24.8790
15.7687 -95.9064 36.0135
13.4338 -41.9942 17.9101
7.8442 -95.1402 28.2774
17.8557 -2.7424 27.1634
16.9732 -96.2214 35.3474