3.8512 -56.7836 42.6814
6.3899 -63.7248 42.9976
-4.6591 -46.8102 25.3161
-2.6507 -54.3440 17.9100
8.9753 -50.0889 50.9484
4.6920 -57.6743 42.8351
-0.0981 -62.9431 44.0312
33.6533 -67.3817 34.9775
-1.4224 -55.0572 16.2559
6.7074 -61.4452 0.7640
2.7340 -70.0416 21.9712
24.6877 -50.9911 37.0665
25.5820 -57.2480 13.5358
32.5990 -57.7766 12.6513
5.7932 -53.4919 1.9900
35.0948 -67.9025 33.5899
17.8301 -49.2211 12.9019
18.1564 -49.3121 8.3217
7.1330 -64.0264 40.9666
2.1764 -70.2900 12.7027
31.9596 -50.4337 14.7622
4.6874 -48.0088 10.7407
-10.4918 -68.1297 34.9978
13.7079 -48.3727 4.9943
3.3399 -69.7513 20.5991
26.3818 -50.6085 40.6531
26.1668 -50.5915 36.0380
26.3548 -49.9072 17.3260
15.3207 -64.1978 2.2942
6.2656 -47.6968 5.8288
-3.2540 -61.3201 44.1684
15.2605 -57.6166 56.7976
27.1797 -50.7707 36.1741
21.8830 -58.0196 55.6112
17.7590 -64.8889 54.8136
27.9585 -57.0359 12.5025
7.2474 -47.7906 44.8365
20.9619 -50.3948 53.9625
9.2362 -61.7338 0.4720
22.7850 -57.2974 13.7596
15.1427 -49.4201 14.6278
20.4839 -49.5705 18.9366
-4.8964 -46.0369 35.3434
-10.3095 -54.6049 39.4240
23.6788 -56.8374 13.9526
2.0137 -46.9385 38.6195
16.6214 -49.4801 53.9872
-1.1616 -69.3645 23.2987
20.8937 -64.8833 53.9821
-1.8906 -53.1118 13.7736
30.9375 -57.5279 12.2558
4.6683 -54.7293 42.6621
1.2058 -69.4451 23.9186
18.6390 -58.4322 56.6472
27.2755 -65.1739 37.3130
27.1639 -65.7964 36.7267
17.0860 -50.4142 40.2957
12.9562 -63.1442 1.1704
18.5413 -48.6617 11.9222
2.7814 -69.5843 21.6540
2.9319 -69.3923 35.3338
2.2927 -68.8048 7.0572
24.4670 -49.1685 40.9847
-6.5148 -54.3821 42.4719
23.0489 -63.2524 54.0241
-9.6040 -68.2967 36.8531
17.6335 -47.2222 42.9718
14.1371 -54.9704 1.4695
26.3061 -49.6379 41.3743
21.2205 -56.4502 7.1549
34.1217 -49.0329 16.2924
29.3311 -64.0516 13.8077
13.0348 -47.5305 5.8826
5.4622 -69.6116 5.8843
-5.6658 -52.3959 18.8993
-10.3267 -58.4605 20.3925
23.6801 -63.7599 15.4124
-8.9587 -67.8014 38.4642
28.6281 -50.2053 36.2668
22.7734 -56.5144 13.7492
29.5014 -55.6384 12.4208
-7.0524 -67.1778 21.7822
18.8662 -63.5611 55.2933
10.8789 -56.0541 55.2045
4.9489 -61.3947 1.3167
30.5246 -49.7833 36.1910
19.0147 -63.1551 4.6641
-1.9918 -52.1127 18.6562
-0.2962 -58.7432 4.5369
26.5673 -57.6113 53.0752
15.6812 -70.2470 14.1470
-1.3912 -52.9980 18.0295
32.3296 -58.9547 38.3423
27.1749 -64.2513 36.9391
5.4149 -54.3164 43.1236
1.7312 -69.2974 39.3209
-8.2026 -54.0327 41.1187
15.9094 -70.3093 11.9461
-0.5096 -52.6244 17.9176
28.0441 -64.2521 37.1606
9.4301 -47.0813 44.7578
16.1135 -48.4381 41.7797
11.9554 -53.1640 1.5926
8.4172 -69.4565 4.9309
34.6346 -60.9455 37.5586
28.9705 -64.4103 41.5086
2.0141 -62.7461 43.5478
-5.2889 -67.3251 21.3782
41.0631 -56.0616 20.2467
16.5067 -63.0124 2.5845
8.3037 -53.9510 52.7864
13.8072 -55.3614 56.3118
27.2826 -48.7057 35.2602
12.6502 -47.0019 49.3203
3.9390 -62.3152 42.4438
21.9873 -47.4542 41.9225
16.8174 -55.9438 56.7589
22.5537 -55.6574 13.8448
-4.2738 -52.9473 43.0643
25.3063 -64.2201 15.2150
-1.4634 -68.2993 22.1341
21.6564 -48.3475 41.2706
13.1686 -60.9037 0.9530
28.3431 -49.1278 17.0947
24.2958 -56.8421 54.4320
-2.7436 -53.1513 43.3944
30.7044 -57.5766 38.9238
3.9626 -53.8442 42.4591
1.2337 -68.3469 20.0376
18.8767 -54.3072 56.2177
11.9501 -60.9065 55.4014
23.8920 -55.6265 14.1953
12.4437 -53.4962 55.2946
15.4916 -59.9442 1.4940
30.1124 -48.7830 16.0824
25.6798 -55.8568 13.6176
-0.0186 -51.6950 18.9023
28.0453 -63.3782 37.3055
34.3938 -65.3123 36.2090
14.3252 -53.7905 56.0233
20.5445 -55.9570 56.0577
36.1251 -56.7003 14.3107
17.1461 -62.0119 56.2255
10.3413 -67.9310 41.2845
-4.5489 -50.7023 41.7308
22.1438 -61.8116 12.5974
2.2879 -59.9714 43.5096
14.8920 -52.8436 2.3811
25.8198 -48.3228 30.4503
12.0703 -67.5973 41.3541
3.8027 -59.9231 42.5693
10.4962 -62.8865 53.9433
3.0540 -53.7039 42.6490
-2.2647 -61.1381 16.2239
-7.9612 -65.3530 20.7589
4.7088 -61.5482 42.3875
-0.5255 -66.8482 21.1655
-4.5698 -50.7680 19.5286
-8.8613 -59.3279 19.6295
0.3788 -61.3450 44.1702
37.7012 -58.2500 35.8024
32.0271 -54.5392 12.9225
19.2835 -46.0898 49.0411
-5.7284 -60.6570 43.5302
38.0684 -48.1185 26.4778
33.8144 -55.6920 38.3404
33.9725 -53.3696 13.7990
8.3610 -58.0385 0.6184
3.0179 -67.2973 40.7650
28.8995 -61.5378 12.8912
28.9062 -62.5200 37.5984
1.4185 -57.3976 3.3104
14.5931 -68.3519 22.2904
1.0811 -51.4983 18.4353
22.4001 -68.9908 22.0164
8.4197 -52.6040 1.7930
2.9370 -59.0575 43.7114
18.2170 -68.3573 14.4868
0.7729 -53.7964 42.9170
-2.9651 -57.9859 17.7157
16.0415 -52.5495 3.2098
29.8585 -54.6906 38.8059
7.6328 -67.1344 23.5495
-3.4694 -50.9699 42.3064
-8.7678 -56.2432 19.5082
30.6496 -54.9424 38.7863
25.1964 -61.2633 14.4244
3.3985 -51.6937 3.7585
36.6429 -54.8240 14.9769
27.1756 -69.4451 18.9258
3.8863 -56.8071 1.9806
26.2880 -54.4889 52.7663
19.3068 -61.1726 4.3869
12.7129 -67.3633 3.2808
-7.1437 -56.0615 18.8055
31.9776 -55.2108 38.7810
4.5261 -51.8127 41.4242
30.6248 -61.9885 12.9931
1.5503 -67.0029 41.7838
30.6722 -46.7672 33.6397
-1.7826 -50.9157 42.4249
-6.3475 -59.8838 18.8277
5.6167 -51.5994 41.3347
-0.6041 -50.3957 10.8812
27.5662 -60.9436 13.1195
6.4549 -51.3753 41.3800
29.8400 -69.2744 33.4619
29.7719 -69.5136 33.5799
13.6645 -51.0007 2.8585
2.9818 -66.2600 41.4180
23.4229 -68.1796 19.0834
4.1590 -65.9361 34.9677
12.1274 -66.3283 2.2823
34.0254 -46.9146 18.8766
29.8656 -61.1977 38.9983
3.0228 -58.2707 43.3992
30.6386 -69.6477 32.2892
15.1546 -51.1224 3.3671
6.0866 -66.1793 28.4810
-10.5635 -55.9855 20.9332
28.0005 -54.3600 12.9904
23.7107 -58.3757 14.0963
19.6599 -67.8577 51.3932
3.8027 -58.1918 42.6977
-2.3437 -65.4468 43.1727
33.0764 -69.5126 32.4814
31.2249 -69.1788 18.2010
22.2584 -53.6156 13.1381
-4.6482 -49.2420 20.9176
25.5452 -61.3031 53.3554
30.3290 -62.3954 37.8117
17.0403 -59.5686 2.3687
38.9030 -55.4793 34.0093
35.0857 -69.5867 30.9731
19.1824 -51.3321 55.0411
24.5780 -52.9980 16.2004
19.7462 -60.5096 56.0747
36.5216 -46.8163 27.4295
-4.3261 -64.3932 43.3036
14.4945 -60.8018 56.3424
8.1659 -65.5782 40.5515
6.9834 -64.9340 1.6263
13.7493 -66.7683 40.8052
-3.2745 -49.7951 20.1408
26.4739 -61.8202 52.2156
10.1427 -50.0025 21.1552
4.8728 -50.4646 23.7587
28.9101 -68.8655 34.4585
10.7886 -50.8005 40.0574
36.0002 -69.4165 30.2120
26.4999 -51.5987 50.9557
24.3507 -60.8913 54.1911
-5.0915 -54.6791 18.3236
33.8532 -53.7960 38.2528
6.1400 -51.4149 2.6632
2.1304 -58.5009 43.4753
29.7740 -68.8682 34.4500
3.0354 -65.2889 41.7062
22.0034 -59.5758 10.7572
7.2671 -50.3802 40.7687
8.5479 -49.9224 3.0169
36.7143 -63.1924 35.6832
35.2125 -61.7153 14.3750
32.1713 -68.6411 34.2342
4.3295 -65.0619 37.4039
21.5827 -53.0358 55.0358
33.2565 -46.0872 31.6745
22.8614 -59.1724 13.1629
35.5399 -54.5420 37.4098
8.1823 -50.4694 40.1557
2.5471 -49.1711 15.1695
16.5221 -52.2367 55.6934
10.9241 -59.1810 55.2513
21.8984 -52.2249 13.5410
24.0169 -51.8164 53.1937
12.0154 -66.0344 40.6597
-2.2025 -55.7622 17.6426
9.6744 -50.3420 40.2554
8.9631 -50.9363 2.4081
0.5558 -65.0861 43.1585
38.3900 -60.9874 16.2511
21.5684 -67.3647 33.2993
-7.4247 -63.0238 19.6836
5.2893 -58.4909 48.6534
24.2665 -52.2085 15.8806
31.8834 -53.7729 38.5565
6.1022 -49.5238 16.4547
33.9581 -62.3165 37.6015
28.7614 -67.9599 35.4738
8.0318 -64.8609 40.6710
-2.5151 -48.6063 21.3678
-5.2006 -62.8957 19.1456
40.6056 -62.6638 29.5830
17.9477 -51.0183 38.7294
13.0015 -56.4683 0.9466
8.6798 -65.1789 40.3326
-4.8124 -47.2955 38.0697
-12.3285 -55.3321 37.0415
21.3608 -58.8799 7.2386
15.9255 -65.4531 3.2668
16.4934 -67.2703 52.7214
-0.1329 -49.4025 41.3769
29.0091 -59.4729 50.1732
23.5009 -66.3822 16.8791
22.8641 -67.2428 50.5868
5.1719 -49.5193 4.3052
30.9165 -67.9591 35.3037
13.7365 -51.1848 54.6759
2.5182 -65.5508 42.2004
17.9426 -65.2357 4.5915
28.4908 -59.2100 12.5008
-3.1203 -62.0024 18.8251
28.2666 -66.6821 15.5313
15.4133 -56.7681 1.5666
16.2716 -59.5843 56.7678
27.8286 -52.3022 39.0527
28.0641 -52.2775 37.8948
19.1851 -66.3138 53.3121
17.2095 -66.9435 5.5526
24.2478 -67.4294 48.7753
-2.3935 -63.2043 19.1904
10.2423 -64.7544 1.2592
30.9331 -52.1494 13.6378
2.5272 -49.6106 40.8160
-2.1543 -56.8419 43.9580
30.0967 -58.9864 12.2264
36.7054 -61.1175 15.0568
6.6027 -64.6523 35.7327
22.6301 -51.0416 38.5511
12.1295 -65.2192 39.6196
29.6452 -52.7876 37.8356
2.9370 -48.6698 15.1953
34.6928 -66.7949 17.1365
22.9826 -51.0982 15.8162
13.5053 -65.5336 53.8252
3.8960 -48.8508 14.9459
-5.8135 -62.9316 43.2437
39.0983 -62.9953 32.7389
12.4303 -58.3243 56.0339
7.2075 -64.4055 41.1432
-7.2097 -53.3673 19.0973
26.0762 -59.0069 13.6928
22.6287 -66.0211 52.2897
5.0483 -47.8030 6.5259
37.1419 -51.9415 16.6709
28.5612 -66.9487 36.3079
8.5259 -63.0627 0.7724
20.1303 -50.5884 12.2093
26.3298 -51.3262 37.3703
-0.5255 -47.8042 22.5650
-4.6623 -54.9472 43.5400
33.7294 -51.4111 14.5751
33.2777 -52.5357 38.0114
1.5146 -55.7465 43.1352
39.7400 -52.6502 19.4697
34.5974 -58.7463 13.5030
10.0463 -64.8458 52.3251
27.0643 -51.0895 36.5098
1.0302 -54.4008 4.2368
-3.0954 -62.4131 14.4478
28.5395 -51.8709 37.1570
-2.1863 -61.9614 18.3178
-1.6985 -63.4569 44.0035
-6.1179 -69.8941 25.6566
14.9841 -47.6778 6.3417
11.6954 -65.0965 40.3020
-8.3665 -62.5308 42.0605
-2.6486 -64.8218 12.7407
7.0191 -65.9269 43.3187
0.9695 -61.9749 3.6219
-1.1602 -53.0007 14.8765
28.0040 -65.5116 45.4784
20.9875 -62.5037 8.0901
1.3990 -51.8093 5.2666
11.5603 -64.7274 38.8007
35.7013 -51.5315 35.9721
-1.7093 -51.9275 10.8569
-2.9433 -64.2314 11.4672
-10.3306 -51.9930 37.3643
6.6078 -64.5313 42.1404
40.2723 -64.4439 28.7653
19.4506 -50.1608 14.8024
-12.3396 -51.2417 32.1430
16.1574 -50.7547 4.4120
39.1865 -50.1236 22.2198
29.8634 -62.8723 41.6118
35.5126 -48.6224 17.9554
25.5951 -49.5354 18.8629
26.5705 -50.1841 49.2992
7.1545 -50.7548 49.4250
1.3213 -49.0866 22.6862
15.4910 -64.1233 55.3259
4.5311 -50.6016 40.2901
0.4024 -48.2504 29.8267
-13.5660 -60.0848 25.1421
7.6198 -49.5354 40.5039
40.9908 -60.2092 20.1523
-1.2721 -47.9107 23.3840
38.4818 -57.2596 16.0613
30.1374 -60.3591 47.1239
3.1781 -70.3299 13.0156
22.1075 -57.7462 11.9748
30.6217 -59.8290 41.9692
1.6782 -70.1027 23.5631
3.9674 -69.4551 17.9200
15.7889 -69.6954 16.3578
-8.5371 -59.2059 42.1071
2.3182 -69.8277 33.0077
-7.4893 -69.6706 26.7795
9.0916 -46.9375 44.8395
18.8478 -68.2375 16.7087
-2.1972 -57.7679 16.2698
17.7239 -68.1339 8.4394
-0.3967 -68.0389 10.2128
12.1132 -69.2647 43.2354
3.5035 -68.2504 28.8079
20.3589 -67.9994 18.3922
20.2075 -67.0032 16.2409
-4.8396 -68.2327 40.5012
19.3972 -66.6504 13.0016
-11.0305 -57.2577 39.6652
41.5870 -55.1940 23.3597
10.1572 -68.8063 44.7868
38.1054 -67.4289 30.4758
-0.0292 -67.1277 18.2098
-9.1474 -66.2950 22.4481
-1.0524 -54.3925 6.5609
35.6329 -56.5676 37.4093
-12.7748 -55.7507 24.5470
-0.8620 -65.2575 17.9928
-2.4353 -63.7835 8.5426
26.9383 -66.1927 38.4683
3.5890 -67.3948 39.4713
8.1485 -67.3907 44.2800
38.1300 -66.4527 31.9185
-12.7019 -66.1513 31.1886
38.1064 -64.2353 17.8357
-1.0194 -62.8518 5.7840
29.2243 -53.5109 41.0762
-0.4145 -53.5252 16.2645
15.0577 -66.2383 34.0135
-10.8863 -64.4184 22.7986
-12.6215 -53.1045 34.8021
21.6650 -63.4812 13.0663
40.3338 -51.7288 27.7972
26.8517 -65.5758 47.9579
4.7821 -65.6809 33.4422
-8.4722 -50.9192 22.0056
22.6947 -63.4296 14.4975
40.5494 -51.8670 23.3431
-1.4846 -51.6019 12.3161
29.0445 -64.5056 44.0442
-1.8064 -63.3443 17.3712
8.1707 -66.8317 46.6920
5.3500 -52.4184 46.1828
4.5737 -64.5653 39.0053
-1.9034 -62.2499 17.7602
21.8366 -60.9037 9.3883
38.4449 -52.5227 33.3481
37.8383 -48.7770 21.3356
1.5653 -49.3426 8.0151
25.0402 -63.7362 52.4012
28.5542 -63.3857 39.6382
31.9068 -60.5178 12.7668
27.7662 -50.3742 42.2750
28.1497 -50.5455 46.0983
3.0603 -50.2100 30.0751
28.4767 -62.5200 39.6382
-10.1321 -64.0380 40.1741
-2.7730 -60.1936 17.9987
6.9883 -49.5287 42.2623
-9.9592 -48.3620 33.1174
29.5145 -61.7419 39.6855
5.6439 -61.8841 44.9801
39.0397 -49.5461 28.3339
6.5406 -62.7313 48.5007
41.5396 -58.5305 21.7546
6.1202 -50.6428 47.4744
14.3153 -47.3120 8.4464
29.4675 -60.7887 39.6382
5.6809 -61.4484 43.0670
18.9536 -58.7145 4.1269
2.9181 -70.6995 14.2291
1.4161 -69.4808 16.1266
-10.2034 -61.1854 40.8118
22.7482 -58.0079 13.2860
-3.1282 -58.3776 13.0689
3.4908 -69.4684 19.5686
-4.3486 -57.0496 17.9996
5.3845 -60.3054 47.8692
-13.8546 -59.9834 35.6573
29.8641 -59.4925 39.6360
1.8629 -69.3480 24.1256
35.1768 -46.0729 29.2505
21.8148 -56.8161 8.7298
4.3721 -69.4820 14.5343
30.0156 -57.8691 39.6647
30.1756 -69.3726 32.8750
3.9418 -68.9619 19.6204
19.9810 -68.6269 19.7620
41.4976 -54.7388 26.7823
-2.4655 -56.3188 14.6054
15.7561 -69.0139 45.2155
3.3637 -68.4778 32.3545
18.8320 -65.5632 6.1039
-0.1564 -66.1336 6.8822
30.4315 -55.6410 45.1295
18.1883 -54.3696 4.5743
13.1416 -68.1522 41.8890
9.8986 -68.5805 41.3742
-13.9926 -55.8275 28.7266
23.1369 -54.2457 14.2122
36.9150 -67.2880 32.6218
26.4914 -67.5028 36.0541
-10.5495 -66.4448 24.4833
27.8846 -64.4038 14.2252
-1.1091 -67.3388 14.7761
29.7725 -55.3174 39.6529
26.9955 -53.3224 14.0794
-11.6006 -67.4328 32.6455
5.2140 -57.5954 43.9469
-13.5875 -56.3397 35.1448
40.8672 -53.3956 21.9555
21.8881 -64.7208 14.7355
-1.3831 -64.9248 19.8935
37.7868 -66.2156 19.7540
-1.5398 -64.2739 7.2818
30.0367 -54.4240 43.5270
5.5217 -54.2287 44.1873
26.9221 -66.7644 36.6699
-12.2122 -65.0365 36.3188
7.2828 -65.9555 41.3313
-12.7730 -53.3565 27.6603
-12.0236 -64.3810 24.6159
21.7137 -61.6776 10.9288
19.7880 -52.0637 8.4810
29.1323 -53.6444 39.6806
-0.6023 -51.1730 13.9389
20.2772 -62.7968 6.3391
40.4960 -53.8316 30.1282
1.0671 -51.5975 17.4159
2.2196 -49.8965 6.2041
9.5866 -65.8468 50.7775
6.4259 -64.2513 41.3695
-7.0567 -64.8636 42.0132
0.6769 -50.0510 14.3073
-12.9192 -62.5925 24.8585
4.2663 -63.5044 41.4441
6.5531 -63.9065 41.6424
28.9793 -51.6832 44.4454
5.6388 -51.0641 44.4051
-12.2186 -62.8252 38.0616
-6.2717 -49.2602 21.8759
2.7478 -60.7057 2.3344
38.7822 -50.3379 30.7972
41.2514 -62.0898 23.2364
-3.3984 -58.3487 11.2244
17.1917 -47.7279 9.5426
-14.3081 -59.7166 28.3098
-2.3899 -59.6738 15.0973
4.0358 -49.8900 39.8723
26.7392 -49.0568 43.4767
-14.3993 -58.7237 33.1798
6.7574 -48.5745 44.2590
35.3108 -46.9373 20.6317
2.2144 -47.8179 39.4647
40.2133 -58.0808 32.1552
6.1183 -60.2097 49.8211
-13.0576 -58.0654 36.9087
21.9220 -54.8377 11.0571
-0.5304 -47.1046 31.9116
34.1779 -46.1331 30.9001
6.8960 -58.6306 51.3230
-10.0608 -68.9697 31.5411
10.3987 -47.5538 48.8702
4.6281 -68.2582 20.6324
1.5326 -68.4499 22.2337
30.8162 -59.4443 44.5185
-2.5748 -69.7090 39.0590
11.1545 -69.4451 43.1008
32.8640 -66.8665 16.3525
4.8712 -57.4274 46.3142
-13.9662 -55.5787 32.8975
19.9531 -54.4567 6.4261
3.5279 -68.3261 23.2563
22.0936 -66.5388 16.9724
25.0404 -67.6579 35.7838
21.6063 -53.4112 11.1919
23.7724 -53.8307 15.5072
-8.9165 -66.6448 39.6486
4.8219 -66.5072 29.1320
-1.7069 -65.0986 16.6848
23.2051 -52.3755 14.9864
25.3218 -53.1635 15.5832
36.2581 -65.7085 34.7773
40.2186 -55.1497 31.5431
6.3464 -54.0154 50.1470
27.8429 -66.0704 41.6350
-1.5151 -64.5847 17.5143
35.6417 -52.3137 15.1972
5.3075 -55.0949 45.6198
4.0526 -65.3448 38.8068
-13.1578 -64.3423 27.6534
20.6072 -51.4866 11.5708
38.8646 -62.0502 17.0942
38.0721 -64.5712 33.5226
1.1217 -50.1893 7.1804
27.7879 -65.3681 39.9552
-11.0028 -65.0149 38.5776
28.3245 -54.3448 50.4602
35.2991 -53.0278 37.1632
5.4893 -52.1324 41.3695
28.2782 -63.3586 48.4129
-3.1763 -59.8352 9.1883
33.6691 -51.3434 37.2995
-11.2192 -50.0364 28.5585
21.9019 -59.6403 8.7755
28.5802 -63.1127 38.8119
22.3791 -59.7265 12.1495
-3.5453 -60.9673 12.5377
3.0229 -49.5738 34.5089
-2.2623 -60.2820 17.1451
27.7569 -51.4121 40.9687
7.3038 -49.5640 41.4082
-13.7289 -62.6068 35.0770
5.5898 -50.9702 45.8138
39.7161 -59.0419 17.3121
29.8716 -62.5972 45.7869
27.8359 -49.9360 44.8099
7.8895 -60.5154 52.2964
-2.3023 -47.5979 24.0237
30.4957 -61.4456 42.0879
-2.4110 -59.0575 17.1316
-11.8947 -58.7048 21.9487
30.5703 -60.0371 38.4249
3.3628 -69.6303 19.5533
30.3668 -59.0575 38.7726
-12.0340 -60.6517 38.8120
22.2008 -57.3262 12.8034
3.8411 -59.1650 42.7639
-2.3034 -57.9407 17.0780
27.8559 -59.5544 51.6266
-13.3782 -58.4394 24.6009
22.1654 -55.5944 12.7930
4.9523 -68.7955 17.0329
30.6106 -57.9005 42.3793
-1.4621 -55.4392 17.1051
3.0085 -69.3065 38.4680
29.9750 -57.6668 48.3461
21.2539 -54.2480 8.9072
3.1527 -68.6169 25.5803
2.8621 -57.4622 43.0812
41.0251 -57.0916 30.0758
-1.7403 -65.8344 9.3713
39.0075 -58.4023 34.2910
38.1088 -67.9298 25.9948
-11.3903 -66.8587 26.8870
22.4082 -54.7583 13.1434
-2.5486 -53.6807 12.0395
4.1879 -66.6856 31.8315
5.1169 -57.6272 43.1102
-0.8597 -53.9706 17.2274
3.9054 -67.1038 33.7434
-9.8597 -53.6931 21.2588
28.6844 -57.1659 50.8952
26.6466 -67.3208 43.0313
8.8513 -67.7975 45.6431
21.1493 -63.0094 9.7009
25.9660 -67.3442 39.6895
3.7418 -66.8630 40.2673
7.7805 -56.5813 52.7867
-1.2511 -64.6883 18.5840
0.2822 -52.6600 17.1506
29.1672 -53.5976 48.3190
-1.7359 -52.9721 9.1380
13.4187 -65.9358 39.6398
7.3547 -65.9826 40.5039
40.0519 -65.3902 26.9566
29.7149 -53.8898 38.7081
0.7612 -52.1324 17.1316
5.6581 -55.1492 48.3183
14.6361 -66.5686 53.2133
12.0994 -65.3791 40.5328
3.8155 -65.9419 39.5541
7.6015 -65.2347 40.9451
9.6643 -65.4461 40.2290
40.8443 -63.5678 26.3245
39.4264 -64.8898 30.9464
-1.8377 -63.4719 18.6828
5.9844 -52.5385 42.9312
11.4402 -64.7561 53.4714
8.2114 -64.5455 40.3397
39.8744 -50.4108 24.8287
19.4593 -50.0599 12.9413
-0.3268 -50.1589 12.2452
-14.3107 -62.2381 32.8619
20.1862 -60.1948 5.3984
-12.3131 -51.1215 30.6391
25.3036 -50.9199 17.3364
2.0066 -50.1686 15.9216
-3.3901 -61.5472 10.4567
4.7243 -64.0224 40.2300
28.9752 -63.6975 40.4955
30.0290 -62.8152 44.2130
-1.9945 -59.8975 6.6093
5.8831 -51.2667 43.1008
36.6664 -49.2517 32.9632
-9.7572 -49.9647 36.0565
1.5300 -49.3809 21.8245
29.2759 -62.5419 40.3649
41.4725 -59.4875 28.2881
-14.3206 -62.4397 30.4022
4.6276 -50.2766 38.6935
40.1413 -60.3505 18.2482
28.1605 -51.5896 48.3677
0.2288 -48.7648 26.2792
6.3320 -50.2000 43.0917
7.5981 -49.2814 48.2098
-8.5647 -48.0492 34.9132
29.7198 -61.3740 40.4356
30.6138 -61.1874 43.9933
6.9295 -48.6698 43.1008
41.8275 -57.8913 24.5640
4.0253 -69.8927 16.2117
30.0262 -59.5008 40.4605
3.1599 -69.5362 20.4671
15.6148 -69.3452 7.7070
20.0733 -56.7196 5.4118
32.2716 -46.4545 31.5907
-12.2724 -56.8031 22.8255
3.3853 -69.3404 20.5090
34.7986 -46.2235 29.8440
2.5217 -70.0297 30.4804
37.1054 -68.8388 28.8463
9.3780 -60.2028 53.8859
29.4353 -69.0170 33.6902
0.0608 -67.5068 8.1780
-14.6203 -59.6697 31.0713
28.1009 -68.9655 30.4331
9.3900 -57.4312 54.3313
29.9723 -56.2665 40.9541
0.5843 -67.6461 21.3794
40.3009 -55.6950 18.7697
18.6931 -67.8505 11.6345
-1.2790 -67.3580 12.4240
-2.6871 -56.8138 8.6845
38.9135 -66.8711 29.3317
-0.7315 -67.0525 16.5726
2.4506 -64.8828 3.6361
-0.1986 -66.9161 20.0366
19.9694 -64.7201 7.7245
-11.1383 -52.9752 23.7426
4.2822 -67.2021 27.4741
22.5337 -65.2391 15.7329
25.1459 -54.6868 14.3304
17.2529 -52.5710 4.4254
26.5028 -67.0051 37.3447
20.5593 -64.1617 11.6144
-13.1354 -65.3659 29.5778
36.0523 -63.5227 15.4781
10.4989 -47.6869 5.4952
23.4988 -67.6710 37.4254
18.7510 -49.2014 9.7018
1.1381 -70.4106 32.6693
2.9860 -48.2596 9.4432
2.9151 -69.8560 8.4561
31.9816 -46.7779 18.8084
20.4371 -68.8751 22.6718
-4.4131 -65.1170 19.8439
0.7888 -52.1903 18.0200
14.3702 -67.8020 51.6043
4.0495 -50.8333 40.8929
2.1039 -47.6499 37.7601
27.1198 -67.7773 35.3702
9.6079 -54.6469 54.1258
2.6067 -68.7581 23.2746
32.3688 -46.4562 32.7131
23.7620 -68.8780 20.5815
13.4446 -70.3991 8.3454
6.2003 -63.5102 44.8205
20.5011 -65.5268 13.8813
3.8174 -49.1319 39.6747
-2.6313 -47.4165 25.0088
28.0543 -68.3977 33.9201
28.8513 -48.0433 35.2651
15.3394 -66.9966 40.9119
38.8180 -66.6471 22.2123
-4.0039 -60.5285 18.5477
-7.1179 -69.2334 38.0853
20.3907 -50.6882 13.7324
-12.7616 -60.3230 23.2748
13.2482 -68.7414 49.3302
3.8027 -68.6521 38.7726
10.7278 -69.2229 43.1008
5.0650 -48.7226 14.2952
-9.1402 -62.8181 20.4669
23.5236 -46.9775 43.7052
14.2049 -49.7701 16.9472
2.8232 -68.9575 22.1356
0.7851 -51.3221 16.2593
0.0224 -68.7905 14.0403
37.0337 -47.6763 29.7102
3.7474 -49.4446 38.9725
-5.7194 -70.2741 26.6536
21.7719 -46.9149 43.1547
2.9539 -50.3272 22.0878
3.5555 -68.4028 38.4299
10.9973 -68.4958 41.9474
17.9010 -46.0862 46.8770
2.7979 -69.1856 20.5341
36.7775 -46.9162 25.1729
11.3282 -65.0115 39.9813
30.7740 -53.4216 38.2875
28.6402 -47.7067 33.7629
24.6508 -49.0442 50.0540
18.2035 -68.8679 18.3978
-7.4506 -70.7865 33.5787
17.0265 -69.6654 13.0891
2.8134 -69.3583 18.8302
2.0011 -70.2773 37.6726
-10.0104 -48.8258 27.8563
6.1016 -52.1241 42.2694
35.9622 -69.5850 24.0545
26.8375 -50.4793 16.1208
25.8909 -49.7141 35.1099
21.8559 -48.1744 51.3666
4.3283 -69.8146 9.4627
32.0828 -51.4009 37.5324
32.2430 -65.9774 36.5376
7.6762 -47.5626 8.7553
-7.2382 -46.3097 33.0152
3.2091 -50.6057 19.8593
-0.7317 -70.6408 35.2588
23.6982 -65.3283 16.1977
6.1946 -63.4473 41.3364
20.6897 -68.6178 49.6192
3.7684 -47.8079 9.3660
-1.3911 -65.9855 20.5943
5.6795 -67.2764 22.9950
22.1758 -49.2222 40.7472
22.0098 -50.7099 35.8874
6.2041 -50.8666 40.4202
5.4230 -63.4300 40.8996
29.5822 -47.5676 21.5112
29.7718 -70.0737 19.7285
25.8613 -67.4341 37.2345
37.0803 -68.5008 23.1041
17.1790 -67.8768 27.8192
21.3662 -46.4201 48.5367
11.1737 -65.4379 36.3747
6.0245 -69.8238 9.4728
32.8174 -48.8247 35.4452
16.3401 -47.8517 10.9793
8.3729 -67.7678 19.2737
-2.6629 -70.1030 25.3860
3.9832 -47.7907 7.9989
30.6375 -47.4666 34.4444
24.0788 -68.6021 45.6785
12.3633 -66.4284 52.4756
11.1297 -46.8685 48.1305
22.9457 -61.4485 13.8080
22.8486 -55.1881 13.8550
16.2126 -46.9026 50.9801
-6.2389 -65.1782 20.0444
20.2232 -46.0126 48.3410
4.1649 -69.8578 7.2124
30.6356 -69.4341 33.5756
-11.5825 -67.5129 30.5116
-4.8537 -46.3786 36.1757
17.9776 -49.8692 16.5963
11.7523 -67.6002 50.4990
7.5505 -47.8449 5.0684
35.4875 -46.9682 30.9827
16.1393 -49.9527 28.7831
3.3184 -49.2891 15.5484
2.9370 -70.4934 15.4003
30.0830 -48.0485 17.1198
5.1984 -48.2562 12.3627
30.9304 -46.7547 32.8075
30.6375 -70.0160 32.7131
12.1558 -47.6695 50.8417
26.8282 -68.6871 17.8945
-8.3397 -46.7530 31.2605
16.7678 -47.7888 8.4081
28.7107 -51.9503 42.1029
-9.3646 -64.5209 21.3056
25.6872 -69.4551 24.5740
1.6029 -69.8452 23.5382
18.3358 -49.8289 14.3143
8.8574 -66.6139 2.1791
7.8924 -48.2851 43.5853
6.4776 -50.7276 39.1013
0.1302 -51.8927 6.6837
12.6576 -65.7872 40.1560
1.2058 -48.0812 22.3254
1.2058 -67.9830 22.3254
22.0291 -67.8996 18.9327
5.9154 -68.0134 18.6402
33.2493 -46.2876 28.9317
1.5413 -47.1585 37.8368
9.7660 -68.6616 42.9983
2.9370 -70.7060 12.8034
29.1445 -62.2863 39.6100
-3.1224 -47.0931 24.0567
-2.2068 -69.9031 24.0383
8.5960 -63.6456 51.6429
0.9479 -68.0888 21.6199
1.2110 -48.7113 21.5762
-2.2019 -48.4813 40.6384
23.8671 -47.8342 41.2604
1.3585 -70.2894 36.5063
25.3805 -52.0624 16.2984
8.7975 -49.0098 41.4132
2.7096 -70.1112 12.1304
29.0569 -62.5029 38.7355
28.9018 -53.3276 38.7406
10.7744 -69.6172 5.5947
24.3427 -68.5763 40.5736
9.5465 -49.5341 40.9280
9.0545 -66.9725 40.8924
2.8217 -70.0146 11.0755
2.9544 -48.0574 10.6373
28.8668 -52.8539 37.9432
6.4816 -65.3238 32.3897
-3.1309 -47.7765 22.6916
-8.3071 -70.0354 33.9949
12.9302 -70.5716 12.7734
10.9381 -66.4108 30.7201
1.2242 -50.5142 19.7291
29.7109 -47.1252 28.0346
-2.2568 -46.3423 37.9069
11.5934 -47.4417 5.8783
4.6597 -53.7804 42.4175
-4.5119 -46.3090 34.9787
-7.4528 -47.9895 25.5114
8.9716 -64.7605 39.8303
2.9370 -70.2498 10.2065
39.3644 -66.4079 24.8432
23.1944 -68.6480 46.9047
1.2828 -51.3133 18.9439
5.3312 -51.2014 40.8889
9.7618 -64.5914 39.0060
0.9687 -70.3998 25.4791
17.9431 -49.0445 24.3396
-6.1210 -49.7365 39.8802
16.9235 -69.2282 18.3223
4.0702 -50.6011 28.6947
-10.1139 -48.0607 31.0447
7.2329 -65.9105 45.4327
0.8068 -68.3348 17.3008
15.5686 -47.7603 52.1259
-6.2880 -69.9862 27.7362
5.1924 -69.3360 13.2253
-13.4047 -64.8475 32.8193
16.3415 -68.2222 42.8500
-1.4389 -64.2119 19.6096
33.2344 -46.7265 32.7131
1.8961 -50.9025 17.9052
-3.4644 -46.3099 36.5153
13.1426 -69.3500 18.4209
28.9062 -47.3437 34.4444
39.5335 -63.4428 18.9718
22.8467 -69.1364 45.6977
20.3451 -67.0594 36.6715
6.9925 -48.5411 45.7697
21.4638 -51.2003 14.2628
17.4601 -50.6390 33.4142
29.3890 -47.9309 18.6668
34.9932 -69.4009 21.3020
1.2458 -70.5882 29.3295
8.5323 -70.0876 9.2235
-3.2273 -59.1838 17.9450
-7.0770 -70.3255 34.9392
10.2954 -51.6851 53.3714
5.9280 -68.7743 4.5471
-1.1438 -68.1597 41.0875
-9.4540 -68.6386 26.8887
5.2386 -64.7472 36.1257
-0.2227 -48.3749 24.2734
0.4928 -69.8007 23.9465
-13.5524 -53.9052 31.8574
6.0355 -67.4069 3.2075
3.2372 -69.0012 21.4603
24.8067 -49.0661 19.8051
-9.3878 -47.6558 29.6030
-4.8537 -70.3326 25.7874
-10.2054 -66.8146 38.1277
9.2877 -49.5525 16.7701
14.6677 -51.1549 39.3128
-5.7372 -46.4121 35.3127
14.2269 -47.0198 6.9310
32.4785 -46.9553 23.5355
-4.6871 -69.8553 24.4950
26.1835 -48.9382 33.6669
-11.6234 -66.8337 34.9827
38.8094 -54.4397 17.0604
11.2532 -50.7759 34.4214
24.6352 -68.6494 41.9881
22.8467 -47.0046 42.2351
3.1488 -69.2693 19.6762
3.3207 -69.4288 20.1485
2.9350 -48.1273 13.9143
26.6637 -51.4878 39.3177
2.1582 -70.2430 24.7735
17.3322 -68.5928 43.9751
-0.5255 -67.2665 21.4598
13.0427 -63.6435 54.8435
22.8467 -47.3145 41.3695
17.4694 -69.1694 10.9561
26.8726 -51.6601 38.3396
-4.6177 -47.4049 23.8694
24.3079 -48.0949 24.5799
-7.9156 -70.4438 32.6294
-6.1193 -46.3962 32.9156
23.5168 -68.2989 40.2272
3.4153 -69.7054 17.9866
11.5507 -49.8865 24.6440
7.6070 -64.1036 40.3674
31.7147 -69.9575 19.7155
34.8697 -64.9560 15.6684
-4.0523 -70.3040 37.7131
23.5153 -46.9478 46.7410
25.8923 -67.3128 46.0526
26.3040 -69.3301 20.3577
-8.0383 -70.2439 31.0139
3.8124 -70.2628 17.0446
23.6843 -54.9415 14.5118
30.6895 -46.9619 18.9816
27.6378 -64.3222 37.4104
27.4311 -51.6737 37.1422
33.0157 -47.8171 34.3461
19.6485 -68.0993 42.3280
11.4949 -48.6339 13.3599
-0.7374 -66.0917 19.6258
-3.9881 -46.3598 37.0413
12.0245 -49.9937 53.1388
15.3833 -70.2644 9.5546
3.2307 -50.2037 17.1357
3.8027 -70.6249 16.2660
32.2070 -69.8222 21.5371
0.8056 -49.2789 10.2945
1.1413 -69.4675 10.3594
-2.8290 -46.7038 29.7356
14.3794 -68.4882 42.6245
4.5929 -50.4761 33.7145
2.3000 -69.6975 24.7930
31.5067 -46.8838 33.5852
-3.9883 -45.9854 36.1757
25.5102 -47.9546 44.0069
8.6674 -68.4942 3.6485
8.9513 -50.0741 25.6345
-1.0256 -70.6629 31.3770
2.2552 -68.9940 24.2036
31.5031 -46.2464 32.7131
31.5031 -69.8240 32.7131
11.6329 -70.4047 7.5526
5.5012 -51.9795 47.3865
2.8193 -48.3892 39.5879
2.9383 -68.5788 39.5951
26.3093 -49.0323 18.8629
16.5639 -46.3398 48.8440
2.0272 -69.7993 23.8149
22.1108 -68.6083 20.3221
10.5980 -47.7009 10.2944
11.7341 -50.1988 30.6993
35.8397 -69.8322 28.5175
-6.8729 -70.2983 36.2305
7.3632 -53.2215 51.4828
2.0286 -68.7798 22.5360
2.5201 -50.1270 22.8484
35.6841 -46.2973 28.3963
2.4597 -69.6101 38.1279
24.6899 -67.8726 17.7653
-7.7841 -46.9434 28.3086
10.2822 -68.7180 42.2558
3.6596 -69.8458 12.6114
34.8885 -46.7447 25.0482
-5.1215 -66.5937 41.8823
24.8923 -65.7478 50.6772
19.8650 -46.3894 45.1526
14.5435 -70.5241 13.9147
2.2686 -68.9480 21.4090
29.5227 -69.7744 20.6955
25.7120 -67.8536 41.0579
9.4300 -49.9456 19.4590
2.1800 -70.0262 36.9940
10.0313 -48.7076 42.0148
2.9192 -47.9245 12.3280
33.6078 -69.4135 19.8283
29.6146 -61.9710 38.7973
40.4475 -64.4992 24.1173
10.3120 -50.9725 39.0946
15.0719 -70.7812 13.6207
2.1071 -50.3700 20.6011
12.4724 -47.4089 7.4658
12.1837 -68.9878 4.9831
19.4302 -49.5792 11.9430
8.9232 -66.2158 40.5125
3.7124 -69.9263 10.4161
29.5939 -62.2593 38.0927
15.0535 -70.8561 12.0880
-1.4132 -46.5754 37.9298
13.9118 -48.9187 53.0578
5.4648 -52.9590 42.2466
5.6388 -62.4845 42.2104
24.8904 -67.8685 39.4395
25.3513 -51.0131 39.5777
11.6858 -69.4215 45.4818
-7.8519 -68.1744 23.6239
10.0772 -64.9494 39.7346
17.2077 -46.6102 44.4197
23.9841 -47.8687 48.7447
5.6747 -50.7593 28.8434
34.5226 -49.5274 35.3595
1.9762 -50.8439 19.0637
20.9843 -50.2222 16.3323
5.1377 -63.0052 41.5720
0.1348 -68.8874 11.7877
19.2290 -46.8034 50.5707
16.4003 -55.9387 2.3773
40.1142 -63.4770 20.3263
-2.4927 -66.5611 20.7978
9.8115 -69.9208 6.8055
14.6840 -70.5926 11.1004
21.6854 -50.7410 15.4350
27.3862 -48.4977 19.5480
25.2969 -51.2531 38.3685
22.2852 -49.1209 30.0634
11.5656 -69.5193 44.0301
8.9911 -64.5520 37.5749
32.5781 -47.5077 17.5468
4.6276 -67.5020 23.7677
2.4344 -69.5872 17.0588
16.5250 -68.5823 50.7486
6.2145 -63.9022 39.3776
5.1264 -50.6487 39.8717
28.8266 -69.4970 18.8359
22.9529 -54.9347 54.9133
6.7881 -69.2193 13.7284
21.4953 -68.7946 46.0528
29.7718 -47.3742 34.4444
17.2540 -69.1347 15.4944
34.4219 -47.5662 33.1542
0.7750 -46.7737 38.8898
14.2667 -69.1139 47.1858
-0.0695 -50.4236 8.9151
-6.2021 -51.2529 19.7356
23.6044 -48.4356 22.2373
-6.4766 -70.5778 33.9729
23.2616 -68.7093 44.6565
-7.6536 -69.9380 28.4178
13.9653 -70.0110 15.7023
0.7715 -48.7116 23.1853
29.9611 -47.2107 33.3519
-1.8026 -67.0754 42.0733
0.7271 -48.1036 40.3441
24.5890 -68.5910 18.8992
15.4256 -47.4643 7.9752
-11.5853 -60.5494 21.7926
-4.3489 -70.1455 25.7571
23.0254 -49.8178 52.4032
2.5756 -67.2796 5.1005
0.1183 -48.2398 23.0849
1.1730 -68.8924 23.1494
30.4384 -69.3887 31.1769
26.4083 -64.4746 50.1520
36.9912 -54.6667 36.2274
-5.7194 -46.0854 34.4444
24.1168 -49.8927 18.2139
15.1050 -67.8349 4.7580
1.5816 -69.9983 13.8856
-3.9881 -70.1650 24.9224
24.4417 -67.7943 32.9505
15.0849 -50.7855 40.1628
-0.5776 -47.9876 22.3343
0.3410 -68.1933 22.3066
24.8473 -48.0019 42.1841
11.3586 -68.5254 48.3336
8.1091 -67.1385 41.3164
28.5404 -50.0435 15.7259
16.3952 -69.0923 20.0532
21.6490 -68.6684 44.1199
0.3401 -67.0252 21.4598
31.2962 -46.6826 31.9271
-3.7740 -48.1388 39.8046
24.4383 -66.7481 16.9456
8.0511 -64.3542 40.8808
7.8785 -49.0747 41.9567
2.0952 -69.9648 10.2497
15.0279 -46.4228 46.9346
-4.7673 -68.7500 22.7769
-7.1317 -67.1010 40.5857
12.2937 -65.3554 38.5383
3.7429 -63.3074 2.2870
0.1366 -67.3211 20.7788
19.8668 -66.9156 34.0010
24.6625 -50.2727 40.3567
17.4937 -47.8023 10.9916
18.8888 -48.3902 52.8095
8.3389 -49.9003 40.6563
8.1309 -49.0304 40.5039
8.1113 -67.0392 40.5014
14.0879 -66.0456 38.0686
6.0808 -52.1081 48.7686
1.2438 -49.8360 20.4202
33.5054 -69.7847 27.8673
-2.2243 -46.6036 38.4372
26.6043 -49.1236 47.1460
3.7482 -64.3941 41.2793
22.6967 -50.6455 39.7152
33.7669 -46.5379 26.7653
28.3768 -65.5783 36.9526
14.1889 -46.7636 44.9452
5.4460 -65.6445 31.7143
2.5718 -69.1921 25.3428
16.1114 -66.6782 39.8501