5.9868 -69.1469 61.8880
7.6711 -69.2857 62.3000
9.2413 -69.4014 62.5705
10.6594 -69.4835 62.6290
11.9924 -69.5473 62.5728
13.2822 -69.6028 62.4644
14.5666 -69.6591 62.3647
15.8202 -69.7097 62.2298
16.9848 -69.7387 61.9541
18.0456 -69.7409 61.5018
19.0418 -69.7258 60.9340
19.9933 -69.6982 60.2808
20.9020 -69.6579 59.5404
21.7979 -69.6130 58.7662
22.6458 -69.5528 57.8851
23.4379 -69.4740 56.8744
24.1964 -69.3826 55.7717
24.9460 -69.2854 54.6244
25.7288 -69.1956 53.5216
26.4744 -69.0907 52.3090
27.1626 -68.9631 50.9324
27.7827 -68.8078 49.3553
28.1349 -68.5541 47.0813
28.0017 -68.1195 43.5228
4.3675 -70.2281 61.5456
6.4089 -70.4320 62.4689
8.0452 -70.5516 62.8223
9.5821 -70.6527 63.0546
10.9850 -70.7265 63.1026
12.3173 -70.7866 63.0587
13.6044 -70.8384 62.9596
14.8588 -70.8845 62.8230
16.0721 -70.9226 62.6316
17.2034 -70.9419 62.3094
18.2556 -70.9423 61.8530
19.2477 -70.9278 61.2893
20.1783 -70.8971 60.6085
21.0536 -70.8511 59.8151
21.9213 -70.8020 58.9959
22.7413 -70.7384 58.0683
23.5418 -70.6676 57.0833
24.3379 -70.5934 56.0691
25.1243 -70.5141 55.0122
25.9160 -70.4338 53.9429
26.6980 -70.3480 52.8268
27.4056 -70.2362 51.5124
28.0012 -70.0850 49.8967
28.5012 -69.8972 47.9980
28.4635 -69.5252 44.7044
4.7704 -71.5070 62.0835
6.6697 -71.6677 62.8058
8.3727 -71.7929 63.2735
9.8616 -71.8771 63.4430
11.2652 -71.9461 63.5038
12.5934 -72.0013 63.4653
13.8481 -72.0427 63.3245
15.0728 -72.0792 63.1487
16.2499 -72.1065 62.9052
17.3669 -72.1214 62.5673
18.4097 -72.1197 62.1034
19.3924 -72.1041 61.5318
20.3012 -72.0705 60.8192
21.1505 -72.0215 59.9847
22.0069 -71.9730 59.1511
22.8237 -71.9133 58.2251
23.6309 -71.8493 57.2620
24.4413 -71.7844 56.2864
25.2481 -71.7166 55.2828
26.0480 -71.6448 54.2426
26.8313 -71.5660 53.1415
27.5491 -71.4658 51.8628
28.1410 -71.3250 50.2524
28.6610 -71.1573 48.4162
28.8929 -70.8949 45.8045
2.8965 -72.5569 61.3801
5.1050 -72.7578 62.5207
6.9255 -72.8914 63.1360
8.5757 -72.9969 63.5325
10.0646 -73.0745 63.7114
11.4696 -73.1384 63.7840
12.7845 -73.1868 63.7333
14.0161 -73.2201 63.5631
15.2110 -73.2476 63.3455
16.3722 -73.2694 63.0825
17.4815 -73.2813 62.7388
18.5155 -73.2777 62.2666
19.4799 -73.2592 61.6687
20.3844 -73.2270 60.9553
21.2476 -73.1847 60.1547
22.1014 -73.1394 59.3240
22.9129 -73.0829 58.3955
23.7200 -73.0238 57.4403
24.5236 -72.9622 56.4590
25.3186 -72.8967 55.4389
26.1024 -72.8264 54.3716
26.8783 -72.7518 53.2619
27.5929 -72.6583 51.9838
28.1853 -72.5284 50.3827
28.7293 -72.3803 48.6131
29.1174 -72.1823 46.3978
3.3821 -73.8368 62.0269
5.3056 -73.9724 62.7586
7.1416 -74.0974 63.4066
8.7614 -74.1884 63.7655
10.2418 -74.2578 63.9396
11.6297 -74.3130 63.9934
12.9142 -74.3515 63.9011
14.1296 -74.3787 63.7112
15.3172 -74.4021 63.4883
16.4730 -74.4207 63.2228
17.5613 -74.4272 62.8488
18.5729 -74.4190 62.3425
19.5305 -74.4002 61.7377
20.4547 -74.3743 61.0670
21.3525 -74.3426 60.3395
22.2055 -74.3007 59.5156
23.0142 -74.2481 58.5901
23.8124 -74.1919 57.6254
24.6014 -74.1320 56.6221
25.3692 -74.0655 55.5518
26.1262 -73.9945 54.4332
26.8919 -73.9234 53.3068
27.6107 -73.8384 52.0445
28.1891 -73.7155 50.4171
28.7199 -73.5759 48.6218
29.1292 -73.3993 46.4649
3.8161 -75.0914 62.5994
5.5882 -75.1910 63.1200
7.3393 -75.2909 63.6499
8.9548 -75.3726 64.0112
10.4166 -75.4322 64.1648
11.7756 -75.4773 64.1805
13.0405 -75.5084 64.0637
14.2425 -75.5304 63.8587
15.4250 -75.5503 63.6341
16.5589 -75.5628 63.3374
17.6259 -75.5644 62.9319
18.6134 -75.5520 62.3879
19.5841 -75.5367 61.8124
20.5201 -75.5149 61.1696
21.4176 -75.4855 60.4481
22.2721 -75.4472 59.6336
23.0858 -75.4000 58.7247
23.8833 -75.3483 57.7662
24.6485 -75.2886 56.7204
25.3982 -75.2240 55.6184
26.1360 -75.1548 54.4636
26.8888 -75.0868 53.3139
27.6051 -75.0085 52.0510
28.1842 -74.8962 50.4306
28.7042 -74.7661 48.6152
29.1059 -74.6030 46.4448
4.1008 -76.3093 62.9537
5.7799 -76.3853 63.3463
7.4709 -76.4660 63.7933
9.0720 -76.5368 64.1393
10.5337 -76.5897 64.2993
11.9122 -76.6325 64.3531
13.1836 -76.6609 64.2544
14.3719 -76.6779 64.0342
15.5300 -76.6914 63.7753
16.6324 -76.6971 63.4309
17.6779 -76.6943 62.9930
18.6628 -76.6819 62.4495
19.6264 -76.6662 61.8662
20.5619 -76.6458 61.2278
21.4527 -76.6175 60.4987
22.2994 -76.5809 59.6741
23.1102 -76.5371 58.7646
23.8948 -76.4875 57.7848
24.6517 -76.4315 56.7265
25.3907 -76.3705 55.6062
26.1254 -76.3069 54.4491
26.8843 -76.2462 53.3175
27.6115 -76.1772 52.0845
28.1738 -76.0719 50.4305
28.6631 -75.9475 48.5466
29.0804 -75.8028 46.4186
29.2866 -75.6063 43.6782
4.2600 -77.5002 63.1247
5.8855 -77.5601 63.4446
7.5230 -77.6241 63.8162
9.0904 -77.6816 64.1145
10.5853 -77.7321 64.3309
11.9795 -77.7712 64.4145
13.2611 -77.7969 64.3378
14.4505 -77.8113 64.1251
15.5898 -77.8197 63.8398
16.6919 -77.8238 63.5001
17.7234 -77.8184 63.0428
18.6963 -77.8047 62.4826
19.6539 -77.7889 61.8930
20.5730 -77.7673 61.2281
21.4497 -77.7390 60.4758
22.2911 -77.7046 59.6446
23.0929 -77.6632 58.7206
23.8700 -77.6169 57.7288
24.6184 -77.5646 56.6557
25.3462 -77.5074 55.5142
26.0877 -77.4509 54.3748
26.8500 -77.3966 53.2538
27.5785 -77.3345 52.0271
28.1201 -77.2359 50.3284
28.6111 -77.1243 48.4512
28.9858 -76.9862 46.2217
29.1871 -76.8086 43.4697
4.2761 -78.6681 63.0860
5.9256 -78.7218 63.4454
7.5562 -78.7757 63.8107
9.1376 -78.8265 64.1348
10.6275 -78.8689 64.3478
11.9805 -78.8971 64.3695
13.2270 -78.9141 64.2381
14.3948 -78.9227 63.9912
15.5309 -78.9284 63.7019
16.6535 -78.9332 63.3991
17.6994 -78.9290 62.9692
18.6858 -78.9175 62.4359
19.6409 -78.9021 61.8447
20.5507 -78.8808 61.1653
21.4185 -78.8535 60.3988
22.2512 -78.8209 59.5529
23.0505 -78.7830 58.6261
23.8297 -78.7415 57.6406
24.5628 -78.6922 56.5381
25.2881 -78.6404 55.3931
26.0181 -78.5879 54.2302
26.7367 -78.5323 53.0125
27.4005 -78.4662 51.6366
27.9794 -78.3841 50.0211
28.4790 -78.2860 48.1626
28.8346 -78.1599 45.8844
4.1675 -79.8209 62.8645
5.8781 -79.8711 63.3155
7.5367 -79.9186 63.7254
9.1114 -79.9600 64.0417
10.5794 -79.9926 64.2222
11.9240 -80.0144 64.2319
13.1653 -80.0268 64.0934
14.3217 -80.0314 63.8285
15.4474 -80.0335 63.5220
16.5554 -80.0345 63.1941
17.6018 -80.0293 62.7651
18.6143 -80.0208 62.2789
19.5790 -80.0072 61.7060
20.4942 -79.9879 61.0382
21.3582 -79.9625 60.2654
22.1896 -79.9329 59.4184
22.9896 -79.8989 58.4943
23.7519 -79.8596 57.4754
24.4821 -79.8153 56.3676
25.2025 -79.7686 55.2126
25.8920 -79.7166 53.9612
26.5402 -79.6576 52.5841
27.1672 -79.5938 51.1187
27.7561 -79.5227 49.5196
28.2744 -79.4390 47.6992
28.5783 -79.3206 45.2879
3.9457 -80.9654 62.4767
5.7254 -81.0108 63.0285
7.4197 -81.0513 63.4916
8.9976 -81.0842 63.8126
10.4453 -81.1079 63.9607
11.7978 -81.1248 63.9822
13.0680 -81.1357 63.8903
14.2392 -81.1389 63.6501
15.3645 -81.1387 63.3434
16.4558 -81.1361 62.9867
17.5010 -81.1298 62.5552
18.5161 -81.1211 62.0734
19.4808 -81.1079 61.5004
20.3934 -81.0896 60.8271
21.2608 -81.0669 60.0607
22.0909 -81.0401 59.2107
22.8887 -81.0097 58.2820
23.6505 -80.9748 57.2617
24.3720 -80.9349 56.1351
25.0804 -80.8927 54.9535
25.7305 -80.8428 53.6146
26.3170 -80.7843 52.0957
26.9197 -80.7259 50.5679
27.4940 -80.6623 48.9264
28.0543 -80.5950 47.1981
28.4605 -80.5060 45.0321
3.6017 -82.1059 61.9091
5.4680 -82.1455 62.5845
7.2245 -82.1798 63.1388
8.8110 -82.2045 63.4705
10.2591 -82.2211 63.6169
11.6368 -82.2340 63.6764
12.9375 -82.2427 63.6328
14.1205 -82.2437 63.4112
15.2358 -82.2405 63.0865
16.3360 -82.2368 62.7442
17.3915 -82.2303 62.3301
18.3990 -82.2205 61.8337
19.3517 -82.2066 61.2374
20.2599 -82.1894 60.5545
21.1302 -82.1690 59.7919
21.9673 -82.1458 58.9539
22.7617 -82.1188 58.0170
23.5192 -82.0881 56.9862
24.2473 -82.0543 55.8718
24.9450 -82.0170 54.6658
25.5398 -81.9694 53.2034
26.1099 -81.9181 51.6431
26.6797 -81.8653 50.0342
27.2309 -81.8092 48.3306
27.8096 -81.7541 46.6377
28.1088 -81.6685 44.2000
3.2101 -83.2516 61.2713
5.1868 -83.2842 62.1049
6.9524 -83.3077 62.6684
8.5658 -83.3248 63.0374
10.0517 -83.3364 63.2395
11.4446 -83.3441 63.3204
12.7421 -83.3475 63.2684
13.9452 -83.3465 63.0775
15.0941 -83.3431 62.8076
16.1963 -83.3376 62.4668
17.2550 -83.3301 62.0567
18.2484 -83.3190 61.5332
19.1814 -83.3045 60.8983
20.0940 -83.2889 60.2203
20.9635 -83.2706 59.4533
21.8097 -83.2508 58.6302
22.6105 -83.2279 57.7032
23.3761 -83.2024 56.6865
24.1050 -83.1740 55.5713
24.7731 -83.1407 54.2994
25.3501 -83.1002 52.7944
25.9036 -83.0569 51.1919
26.4404 -83.0112 49.5015
26.9808 -82.9646 47.7652
27.4646 -82.9121 45.8356
27.4405 -82.8168 42.5881
4.7419 -84.4228 61.3798
6.5711 -84.4372 62.0312
8.2380 -84.4470 62.4758
9.7858 -84.4533 62.7695
11.1905 -84.4552 62.8643
12.4817 -84.4535 62.7972
13.7209 -84.4504 62.6615
14.9065 -84.4459 62.4499
16.0111 -84.4385 62.1104
17.0563 -84.4291 61.6729
18.0368 -84.4173 61.1220
18.9564 -84.4030 60.4577
19.8645 -84.3885 59.7661
20.7567 -84.3734 59.0374
21.6136 -84.3567 58.2305
22.4197 -84.3377 57.3096
23.1955 -84.3171 56.3095
23.9198 -84.2938 55.1805
24.5768 -84.2667 53.8806
25.1523 -84.2348 52.3673
25.6470 -84.1980 50.6278
26.1494 -84.1606 48.8501
26.5607 -84.1172 46.8003
26.4917 -84.0449 43.5241
4.1923 -85.5701 60.4971
6.0948 -85.5738 61.2487
7.7990 -85.5742 61.7408
9.4176 -85.5737 62.1371
10.8644 -85.5702 62.2919
12.1758 -85.5641 62.2509
13.4337 -85.5575 62.1399
14.6464 -85.5503 61.9684
15.7603 -85.5412 61.6393
16.7786 -85.5301 61.1485
17.7458 -85.5180 60.5667
18.6675 -85.5049 59.8988
19.5831 -85.4919 59.2137
20.4925 -85.4791 58.5104
21.3562 -85.4651 57.7100
22.1649 -85.4496 56.7872
22.9355 -85.4331 55.7692
23.6643 -85.4153 54.6420
24.3063 -85.3947 53.3023
24.8492 -85.3706 51.7090
25.3070 -85.3432 49.8764
25.7718 -85.3156 47.9999
25.3022 -85.2544 43.8672
25.6952 -85.2222 41.6372
5.3860 -86.7206 60.1100
7.2259 -86.7115 60.7966
8.9038 -86.7020 61.2733
10.4202 -86.6919 61.5283
11.7922 -86.6814 61.5765
13.0756 -86.6707 61.4991
14.2941 -86.6599 61.3289
15.4060 -86.6487 60.9874
16.4126 -86.6370 60.4666
17.3635 -86.6250 59.8453
18.3019 -86.6133 59.1975
19.2370 -86.6019 58.5389
20.1567 -86.5906 57.8453
21.0207 -86.5791 57.0353
21.8251 -86.5671 56.0937
22.5888 -86.5549 55.0508
23.3055 -86.5423 53.8866
23.9088 -86.5284 52.4514
24.4048 -86.5132 50.7407
24.6976 -86.4952 48.5207
23.9281 -86.4623 43.7866
24.1907 -86.4431 41.2796
6.4137 -87.8657 59.4793
8.1604 -87.8455 60.0448
9.7973 -87.8266 60.4755
11.2565 -87.8095 60.6513
12.5705 -87.7940 60.6112
13.7846 -87.7797 60.4201
14.8985 -87.7666 60.0681
15.9381 -87.7544 59.5914
16.8846 -87.7432 58.9485
17.8361 -87.7324 58.3106
18.7723 -87.7221 57.6396
19.6874 -87.7124 56.9225
20.5501 -87.7034 56.0946
21.3673 -87.6951 55.1627
22.1277 -87.6876 54.0970
22.7754 -87.6812 52.7716
23.3418 -87.6757 51.2369
23.5997 -87.6728 48.9811
22.6209 -87.6785 43.8749
22.8842 -87.6762 41.4083
7.2017 -89.0145 58.4736
8.9323 -88.9839 59.0304
10.4488 -88.9586 59.2771
11.7933 -88.9376 59.2658
13.0297 -88.9195 59.0906
14.1817 -88.9037 58.7829
15.2409 -88.8905 58.3194
16.2323 -88.8794 57.7362
17.1620 -88.8701 57.0373
18.0604 -88.8622 56.2727
18.9729 -88.8543 55.5263
19.8774 -88.8471 54.7555
20.7279 -88.8417 53.8662
21.4794 -88.8394 52.7584
22.0768 -88.8417 51.3025
22.4337 -88.8510 49.2905
22.0423 -88.8810 45.5724
21.7762 -88.9091 41.9917
7.7739 -90.1773 57.1095
9.3008 -90.1442 57.3409
10.7380 -90.1147 57.4521
12.0234 -90.0914 57.3297
13.2367 -90.0712 57.0984
14.3439 -90.0557 56.6911
15.3480 -90.0447 56.1023
16.2311 -90.0393 55.2878
17.0770 -90.0360 54.3921
17.9537 -90.0320 53.5415
18.9119 -90.0251 52.8391
19.8187 -90.0209 52.0265
20.6132 -90.0223 50.9718
21.2118 -90.0333 49.4840
21.5681 -90.0564 47.4352
20.8541 -90.1305 42.9728
8.1363 -91.3646 55.3763
9.5328 -91.3316 55.3855
10.8669 -91.3020 55.3104
12.1754 -91.2741 55.2099
13.2979 -91.2569 54.7965
14.3125 -91.2464 54.1929
15.2335 -91.2419 53.4138
16.1149 -91.2403 52.5511
16.9892 -91.2400 51.6620
17.9023 -91.2379 50.8354
18.8079 -91.2371 49.9823
19.5368 -91.2481 48.7533
20.2085 -91.2638 47.3750
9.7564 -92.5445 53.3691
11.1266 -92.5085 53.3426
12.2516 -92.4907 52.9005
13.2468 -92.4829 52.2278
14.2109 -92.4781 51.4930
15.1719 -92.4742 50.7456
16.1195 -92.4721 49.9647
16.9782 -92.4777 48.9996
17.7936 -92.4878 47.9305
18.3096 -92.5234 46.2244
18.8710 -59.8277 51.1276
18.7819 -59.5778 49.7862
18.5377 -59.3352 48.5377
17.7299 -58.6176 44.8715
17.2918 -58.3854 43.7442
21.2728 -61.1844 50.9151
21.4200 -60.9212 49.4606
21.1403 -60.6809 48.2520
21.0559 -60.4330 46.9464
21.1668 -60.1789 45.5500
20.8144 -59.9462 44.4026
20.2971 -59.7207 43.3413
19.6615 -59.4997 42.3381
18.8464 -59.2846 41.4185
17.6635 -59.0806 40.6644
16.1787 -58.8834 40.0347
22.9664 -62.5402 51.0718
23.3184 -62.2588 49.5099
23.1919 -62.0091 48.2305
23.3049 -61.7480 46.8320
23.2014 -61.5013 45.5620
22.9224 -61.2656 44.3919
22.4274 -61.0419 43.3367
21.8330 -60.8232 42.3317
21.0839 -60.6114 41.4003
20.2729 -60.4016 40.4939
19.2488 -60.1997 39.6807
18.0566 -60.0028 38.9337
16.4390 -59.8196 38.3619
14.4638 -59.6453 37.9234
12.3410 -59.4707 37.5188
23.9156 -63.9224 51.6377
24.1656 -63.6385 50.1308
24.5186 -63.3510 48.5847
24.7150 -63.0782 47.1442
24.6532 -62.8255 45.8582
24.3984 -62.5872 44.6840
24.0337 -62.3569 43.5724
23.5497 -62.1345 42.5245
22.9497 -61.9191 41.5349
22.2580 -61.7085 40.5881
21.4793 -61.5020 39.6791
20.5629 -61.3017 38.8285
19.4725 -61.1086 38.0486
18.0937 -60.9269 37.3847
16.5383 -60.7500 36.7799
14.3219 -60.5979 36.4334
11.8284 -60.4510 36.1677
24.5303 -65.3222 52.3918
25.1110 -65.0011 50.6881
25.3760 -64.7110 49.1889
25.6793 -64.4216 47.6868
25.7383 -64.1549 46.3363
25.5990 -63.9058 45.1049
25.3182 -63.6689 43.9560
24.9176 -63.4416 42.8740
24.4218 -63.2215 41.8424
23.8092 -63.0095 40.8691
23.1129 -62.8027 39.9341
22.3457 -62.5996 39.0290
21.5218 -62.3992 38.1450
20.5264 -62.2077 37.3320
19.3538 -62.0244 36.5874
17.8953 -61.8542 35.9526
16.1479 -61.6956 35.4204
13.6699 -61.5692 35.1637
11.0681 -61.4415 34.9186
24.8361 -66.7492 53.3281
25.5859 -66.3977 51.5128
25.9437 -66.0889 49.9528
26.4413 -65.7718 48.3345
26.6703 -65.4834 46.8880
26.6440 -65.2207 45.5969
26.4385 -64.9755 44.4122
26.0908 -64.7436 43.3087
25.6716 -64.5184 42.2457
25.1324 -64.3032 41.2448
24.5009 -64.0950 40.2889
23.8029 -63.8914 39.3626
23.0621 -63.6904 38.4527
22.2885 -63.4908 37.5533
21.3710 -63.3000 36.7133
20.3139 -63.1169 35.9263
19.0337 -62.9459 35.2240
17.4299 -62.7919 34.6418
15.3447 -62.6624 34.2347
12.8528 -62.5504 33.9592
9.7790 -62.4631 33.8718
24.5348 -68.2474 54.6362
25.7954 -67.8230 52.4956
26.3636 -67.4803 50.8012
26.9508 -67.1411 49.1215
27.3797 -66.8233 47.5563
27.4502 -66.5454 46.2100
27.3327 -66.2885 44.9788
27.0689 -66.0474 43.8340
26.7037 -65.8169 42.7477
26.2857 -65.5920 41.6917
25.7656 -65.3767 40.6888
25.1786 -65.1673 39.7186
24.5374 -64.9622 38.7728
23.8305 -64.7621 37.8552
23.0408 -64.5678 36.9714
22.1496 -64.3804 36.1274
21.1252 -64.2014 35.3339
19.9085 -64.0345 34.6121
18.4192 -63.8841 33.9898
16.7210 -63.7443 33.4333
14.6984 -63.6215 32.9824
11.5146 -63.5678 32.9516
25.6508 -69.2975 53.6977
26.6109 -68.8934 51.7531
27.2996 -68.5281 50.0013
27.7659 -68.1939 48.4045
27.9829 -67.8922 46.9700
27.9666 -67.6194 45.6802
27.8230 -67.3626 44.4705
27.5775 -67.1183 43.3229
27.2366 -66.8852 42.2308
26.8349 -66.6590 41.1734
26.3569 -66.4410 40.1563
25.7904 -66.2316 39.1831
25.1390 -66.0301 38.2492
24.4428 -65.8321 37.3333
23.6634 -65.6409 36.4515
22.8083 -65.4552 35.5980
21.8295 -65.2786 34.7912
20.6896 -65.1134 34.0434
19.3312 -64.9631 33.3737
17.7698 -64.8252 32.7694
15.7725 -64.7162 32.3168
13.1451 -64.6476 32.0782
26.9258 -70.3036 52.6687
27.5151 -69.9352 50.9622
28.0353 -69.5812 49.3220
28.3096 -69.2627 47.8457
28.4122 -68.9689 46.4836
28.3672 -68.6957 45.2163
28.2457 -68.4338 44.0008
28.0393 -68.1835 42.8388
27.7181 -67.9476 41.7427
27.3310 -67.7200 40.6843
26.8404 -67.5042 39.6797
26.2723 -67.2966 38.7130
25.6443 -67.0952 37.7737
24.9511 -66.8998 36.8621
24.1947 -66.7100 35.9755
23.3644 -66.5264 35.1165
22.4197 -66.3521 34.3005
21.3401 -66.1885 33.5328
20.0522 -66.0410 32.8397
18.5947 -65.9052 32.1997
16.7882 -65.7951 31.6782
14.4599 -65.7228 31.3318
27.4807 -71.3837 52.0780
28.0562 -71.0077 50.3895
28.4933 -70.6560 48.8066
28.7050 -70.3392 47.3736
28.7721 -70.0449 46.0379
28.7263 -69.7682 44.7770
28.6022 -69.5037 43.5685
28.3874 -69.2525 42.4163
28.0798 -69.0140 41.3183
27.7023 -68.7850 40.2600
27.2281 -68.5680 39.2522
26.6803 -68.3597 38.2806
26.0641 -68.1590 37.3406
25.3687 -67.9666 36.4348
24.6237 -67.7789 35.5477
23.8044 -67.5980 34.6884
22.8737 -67.4274 33.8709
21.8282 -67.2666 33.0931
20.6259 -67.1189 32.3691
19.2009 -66.9898 31.7206
17.6163 -66.8719 31.1168
15.2546 -66.8206 30.7886
26.4962 -72.9892 53.7829
27.7902 -72.4882 51.6371
28.3072 -72.1107 49.9898
28.7565 -71.7486 48.4058
29.0115 -71.4192 46.9538
29.0761 -71.1205 45.6250
29.0188 -70.8416 44.3756
28.8604 -70.5787 43.1903
28.6362 -70.3266 42.0473
28.3480 -70.0843 40.9434
27.9829 -69.8532 39.8829
27.5350 -69.6333 38.8661
26.9871 -69.4261 37.8985
26.3592 -69.2286 36.9678
25.6736 -69.0376 36.0610
24.9383 -68.8517 35.1730
24.1168 -68.6748 34.3181
23.1977 -68.5075 33.4987
22.1748 -68.3499 32.7145
21.0101 -68.2053 31.9780
19.6778 -68.0757 31.2955
18.1577 -67.9619 30.6701
16.0440 -67.9034 30.2504
26.8383 -74.0980 53.3154
27.8146 -73.6305 51.3679
28.4456 -73.2251 49.6575
28.8977 -72.8535 48.0764
29.1994 -72.5100 46.6024
29.2748 -72.2045 45.2719
29.2245 -71.9207 44.0227
29.0592 -71.6561 42.8449
28.8432 -71.4006 41.7012
28.5687 -71.1549 40.5939
28.2115 -70.9219 39.5329
27.7703 -70.7012 38.5162
27.2228 -70.4950 37.5517
26.6026 -70.2983 36.6204
25.9091 -70.1105 35.7202
25.1650 -69.9285 34.8389
24.3447 -69.7549 33.9860
23.4391 -69.5903 33.1631
22.4453 -69.4346 32.3690
21.2952 -69.2950 31.6288
19.9783 -69.1717 30.9422
18.4985 -69.0632 30.3030
16.5086 -69.0063 29.8377
27.0836 -75.2154 52.9086
27.9735 -74.7483 51.0194
28.5444 -74.3420 49.3492
28.9612 -73.9670 47.7925
29.2418 -73.6192 46.3337
29.3663 -73.3004 44.9787
29.3685 -73.0043 43.7042
29.2304 -72.7326 42.5152
29.0011 -72.4768 41.3817
28.7200 -72.2304 40.2807
28.3669 -71.9958 39.2205
27.9267 -71.7748 38.2059
27.4095 -71.5652 37.2293
26.7938 -71.3694 36.2984
26.0818 -71.1864 35.4090
25.3153 -71.0101 34.5397
24.5035 -70.8387 33.6848
23.6308 -70.6740 32.8496
22.6462 -70.5220 32.0535
21.4984 -70.3885 31.3139
20.1725 -70.2740 30.6321
18.7246 -70.1709 29.9814
16.7155 -70.1300 29.5236
25.8468 -76.9239 54.7831
27.3343 -76.3257 52.4999
28.1122 -75.8654 50.6840
28.6118 -75.4613 49.0601
28.9937 -75.0834 47.5269
29.2454 -74.7329 46.0871
29.3924 -74.4043 44.7222
29.4230 -74.0987 43.4346
29.3363 -73.8153 42.2208
29.1225 -73.5547 41.0819
28.8341 -73.3077 39.9872
28.4642 -73.0746 38.9375
28.0415 -72.8506 37.9165
27.5420 -72.6388 36.9335
26.9280 -72.4442 36.0037
26.2198 -72.2630 35.1144
25.4530 -72.0895 34.2469
24.6304 -71.9229 33.3982
23.7522 -71.7626 32.5667
22.7622 -71.6161 31.7738
21.6057 -71.4899 31.0384
20.2972 -71.3809 30.3501
18.8702 -71.2838 29.6917
16.8098 -71.2631 29.2524
25.8722 -78.0908 54.5057
27.1903 -77.5051 52.3301
28.1484 -76.9978 50.4100
28.6272 -76.5877 48.8016
29.0089 -76.2012 47.2716
29.2258 -75.8496 45.8539
29.3748 -75.5143 44.4898
29.4467 -75.1963 43.1820
29.3608 -74.9089 41.9698
29.1666 -74.6423 40.8225
28.8827 -74.3926 39.7273
28.4910 -74.1620 38.6899
28.0738 -73.9365 37.6674
27.5850 -73.7231 36.6806
26.9907 -73.5266 35.7427
26.2865 -73.3470 34.8526
25.5125 -73.1772 33.9891
24.6843 -73.0145 33.1436
23.7849 -72.8610 32.3216
22.7912 -72.7196 31.5304
21.6548 -72.5965 30.7868
20.3356 -72.4964 30.1024
18.8736 -72.4125 29.4567
16.8629 -72.3989 28.9969
25.7936 -79.2770 54.2924
26.9166 -78.7120 52.2377
27.8774 -78.1889 50.3171
28.5033 -77.7397 48.6239
28.9137 -77.3387 47.0791
29.1182 -76.9821 45.6696
29.2851 -76.6369 44.2969
29.3757 -76.3097 42.9802
29.3102 -76.0144 41.7582
29.1199 -75.7441 40.6099
28.8412 -75.4913 39.5128
28.4706 -75.2560 38.4657
28.0502 -75.0302 37.4454
27.5606 -74.8169 36.4595
26.9576 -74.6227 35.5260
26.2551 -74.4446 34.6351
25.4658 -74.2798 33.7783
24.6036 -74.1254 32.9470
23.6673 -73.9812 32.1396
22.6564 -73.8466 31.3541
21.5653 -73.7221 30.5907
20.3154 -73.6188 29.8776
18.7953 -73.5520 29.2528
16.6651 -73.5689 28.8345
25.5478 -80.4992 54.1810
26.5039 -79.9523 52.2276
27.4404 -79.4185 50.3206
28.2108 -78.9274 48.5429
28.7100 -78.4987 46.9476
28.9481 -78.1280 45.5197
29.1070 -77.7774 44.1517
29.2014 -77.4434 42.8331
29.1478 -77.1411 41.6048
28.9940 -76.8606 40.4376
28.7310 -76.6025 39.3326
28.3649 -76.3649 38.2832
27.9514 -76.1369 37.2595
27.4398 -75.9271 36.2836
26.8273 -75.7353 35.3538
26.1214 -75.5594 34.4634
25.2922 -75.4037 33.6229
24.3890 -75.2591 32.8074
23.4103 -75.1254 32.0154
22.3923 -74.9960 31.2300
21.2928 -74.8776 30.4670
20.0557 -74.7784 29.7457
18.5052 -74.7247 29.1287
16.3085 -74.7656 28.7300
25.2838 -81.7291 54.0799
26.1617 -81.1840 52.1741
26.9886 -80.6586 50.3312
27.7653 -80.1524 48.5485
28.4097 -79.6820 46.8699
28.7625 -79.2793 45.3780
28.9194 -78.9222 44.0112
29.0010 -78.5845 42.6994
28.9452 -78.2779 41.4718
28.7793 -77.9959 40.3101
28.5434 -77.7298 39.1906
28.1929 -77.4874 38.1327
27.7613 -77.2616 37.1167
27.2347 -77.0543 36.1466
26.6012 -76.8669 35.2247
25.8613 -76.6985 34.3475
25.0156 -76.5482 33.5116
24.1233 -76.4047 32.6887
23.1224 -76.2786 31.9031
22.0387 -76.1645 31.1413
20.8998 -76.0573 30.3900
19.6451 -75.9667 29.6710
18.0343 -75.9313 29.0716
15.6765 -76.0122 28.7251
25.8192 -82.4212 52.1198
26.5495 -81.9036 50.3330
27.2995 -81.3894 48.5642
28.0287 -80.8877 46.8362
28.5432 -80.4405 45.2542
28.7297 -80.0700 43.8714
28.7899 -79.7307 42.5708
28.7369 -79.4187 41.3412
28.5506 -79.1371 40.1890
28.2969 -78.8715 39.0771
27.9281 -78.6308 38.0265
27.4749 -78.4080 37.0189
26.9226 -78.2052 36.0584
26.2642 -78.0231 35.1451
25.5095 -77.8589 34.2713
24.6997 -77.7041 33.4164
23.8630 -77.5532 32.5668
22.7885 -77.4444 31.8088
21.6338 -77.3476 31.0719
20.5036 -77.2436 30.3128
19.2030 -77.1668 29.6069
17.4484 -77.1652 29.0558
14.8171 -77.3078 28.8008
25.4836 -83.6625 52.0604
26.1324 -83.1507 50.3204
26.8486 -82.6309 48.5697
27.5620 -82.1195 46.8490
28.1401 -81.6466 45.2301
28.3965 -81.2526 43.8078
28.5001 -80.8973 42.4828
28.4788 -80.5733 41.2355
28.3163 -80.2829 40.0700
28.0227 -80.0228 38.9766
27.6079 -79.7898 37.9463
27.1012 -79.5769 36.9613
26.4872 -79.3863 36.0260
25.8535 -79.1995 35.0975
25.1551 -79.0253 34.1950
24.4278 -78.8562 33.3011
23.5364 -78.7182 32.4719
22.4412 -78.6179 31.7188
21.2508 -78.5329 30.9923
20.1017 -78.4371 30.2364
18.6705 -78.3905 29.5758
16.7356 -78.4316 29.0851
13.8774 -78.6320 28.9026
24.9708 -84.9532 52.1041
25.6830 -84.4129 50.3252
26.3049 -83.9025 48.6262
26.9115 -83.4032 46.9621
27.3467 -82.9517 45.4168
27.7127 -82.5225 43.9298
27.9457 -82.1296 42.5319
28.0281 -81.7757 41.2274
27.9742 -81.4564 40.0042
27.7217 -81.1843 38.8882
27.2596 -80.9601 37.8783
26.7040 -80.7568 36.9135
26.1111 -80.5616 35.9649
25.4990 -80.3705 35.0233
24.8003 -80.1973 34.1176
24.0247 -80.0393 33.2412
23.1676 -79.8969 32.3935
22.1366 -79.7880 31.6101
20.9544 -79.7068 30.8768
19.6344 -79.6496 30.1841
17.9154 -79.6658 29.6273
15.6309 -79.7845 29.2571
24.9647 -85.7513 50.4829
25.4932 -85.2512 48.8318
25.9038 -84.7874 47.2701
26.2030 -84.3573 45.7902
26.6614 -83.8938 44.2443
27.1077 -83.4395 42.7264
27.3983 -83.0283 41.3090
27.4650 -82.6746 40.0206
27.2817 -82.3827 38.8667
26.8617 -82.1472 37.8329
26.3583 -81.9315 36.8401
25.7632 -81.7367 35.8895
25.0986 -81.5573 34.9683
24.3217 -81.4018 34.0931
23.5846 -81.2368 33.1956
22.7837 -81.0845 32.3201
21.8058 -80.9683 31.5110
20.5518 -80.9072 30.8023
18.9947 -80.9049 30.1968
17.0942 -80.9670 29.7011
14.1619 -81.2288 29.5594
23.8205 -87.2154 50.8818
24.3704 -86.6959 49.2089
24.6924 -86.2426 47.6863
24.9264 -85.8176 46.2308
25.2626 -85.3719 44.7384
25.9398 -84.8467 43.0886
26.5316 -84.3502 41.5083
26.7629 -83.9485 40.1309
26.6816 -83.6269 38.9214
26.3269 -83.3734 37.8512
25.8885 -83.1409 36.8233
25.3375 -82.9355 35.8484
24.6480 -82.7620 34.9343
23.8305 -82.6171 34.0723
23.0494 -82.4628 33.1888
22.2137 -82.3195 32.3226
21.1858 -82.2169 31.5279
19.8237 -82.1844 30.8553
18.1038 -82.2244 30.3043
15.9381 -82.3526 29.8979
12.1942 -82.8023 30.0392
22.7585 -88.2938 49.8552
23.3335 -87.7595 48.1787
23.6046 -87.3131 46.6906
23.8811 -86.8709 45.2178
24.1474 -86.4367 43.7683
24.8861 -85.8869 42.0977
25.5986 -85.3516 40.4671
25.7644 -84.9609 39.1274
25.5871 -84.6594 37.9646
25.1970 -84.4124 36.9075
24.6784 -84.1976 35.9114
23.9795 -84.0263 34.9951
23.1241 -83.8913 34.1429
22.2722 -83.7541 33.2824
21.3831 -83.6240 32.4306
20.2324 -83.5520 31.6770
18.8248 -83.5348 31.0121
16.5383 -83.7091 30.6675
14.0188 -83.9259 30.3763
22.3017 -88.8278 47.1351
22.5000 -88.3951 45.6917
22.7343 -87.9578 44.2461
22.9689 -87.5256 42.8173
23.8339 -86.9332 41.0945
24.5173 -86.3966 39.4889
24.5645 -86.0308 38.2086
24.2670 -85.7563 37.0992
23.7857 -85.5296 36.0774
23.0365 -85.3699 35.1746
22.2078 -85.2290 34.3014
21.3694 -85.0891 33.4261
20.2920 -85.0051 32.6428
18.8936 -84.9946 31.9773
16.7377 -85.1572 31.5916
21.3202 -89.8879 46.0549
21.4702 -89.4632 44.6421
21.7425 -89.0096 43.1832
22.2677 -88.4928 41.6177
22.9696 -87.9354 39.9899
23.3211 -87.4790 38.5524
23.1888 -87.1554 37.3554
22.7327 -86.9188 36.3120
21.9672 -86.7625 35.4059
21.1438 -86.6201 34.5198
20.1742 -86.5131 33.6889
18.9263 -86.4734 32.9632
17.0341 -86.5885 32.4807
19.8333 -91.0985 45.2232
20.2390 -90.5945 43.6827
20.6062 -90.1076 42.1813
21.1940 -89.5656 40.5938
21.7221 -89.0472 39.0578
21.8496 -88.6447 37.7270
21.4085 -88.3995 36.6640
20.6690 -88.2348 35.7333
19.7484 -88.1170 34.8757
18.6111 -88.0539 34.1008
16.8641 -88.1449 33.5624
18.1371 -91.5958 41.8008
18.9755 -90.9702 40.0914
19.5287 -90.4338 38.5406
19.1298 -90.1693 37.4360
18.4429 -89.9854 36.4597
17.6612 -89.8269 35.5207
13.7977 -57.9086 43.0925
12.4120 -57.8050 43.0586
11.1402 -57.7542 43.2310
9.9147 -57.7239 43.4831
9.0814 -57.8993 44.5562
8.3734 -58.1480 45.9274
7.6331 -58.3876 47.2664
6.8743 -58.6253 48.6025
6.0189 -58.8160 49.7523
16.6975 -58.8289 40.6525
15.0703 -58.6058 40.1933
13.7200 -58.5120 40.2178
12.5835 -58.5226 40.6355
11.3887 -58.5018 40.9325
10.2331 -58.4995 41.2987
9.0775 -58.4956 41.6577
7.9289 -58.4940 42.0241
7.0825 -58.6611 43.0404
6.4110 -58.9340 44.4693
5.6545 -59.1670 45.7486
4.7805 -59.3381 46.7908
4.0127 -59.5801 48.1130
17.1811 -59.7154 38.9215
15.6175 -59.5143 38.5797
14.2127 -59.3858 38.4959
12.7681 -59.2304 38.3100
11.4789 -59.1503 38.3948
10.3127 -59.1323 38.7045
9.2338 -59.1603 39.1818
8.1810 -59.2026 39.7115
7.1057 -59.2322 40.1941
6.0892 -59.2960 40.8032
5.1866 -59.4290 41.6705
4.4507 -59.6675 42.9345
3.6597 -59.8805 44.1071
2.8318 -60.0779 45.2245
2.0723 -60.3270 46.5404
17.8850 -60.7028 37.6151
16.2487 -60.4572 37.1517
14.8499 -60.3252 37.0785
13.4068 -60.1636 36.8971
11.9934 -60.0108 36.7417
10.6528 -59.8909 36.6978
9.4406 -59.8372 36.8838
8.3538 -59.8517 37.3096
7.3308 -59.9024 37.8638
6.3368 -59.9710 38.4816
5.3724 -60.0590 39.1691
4.4655 -60.1847 39.9932
3.6153 -60.3501 40.9618
2.7388 -60.5041 41.8921
1.8830 -60.6771 42.8932
1.0990 -60.9046 44.0956
0.4255 -61.2171 45.6119
-0.0467 -61.6843 47.7003
-0.3054 -62.3260 50.4387
18.7436 -61.7640 36.5954
17.0508 -61.4824 36.0497
15.6046 -61.3204 35.8982
14.1489 -61.1462 35.7005
12.7595 -61.0008 35.5951
11.4011 -60.8661 35.5214
10.0767 -60.7445 35.4878
8.8540 -60.6760 35.6316
7.7475 -60.6721 35.9943
6.7269 -60.7187 36.5288
5.7556 -60.7959 37.1690
4.8005 -60.8851 37.8512
3.8737 -60.9948 38.6049
2.9947 -61.1389 39.4798
2.1009 -61.2778 40.3387
1.2576 -61.4559 41.3365
0.5051 -61.7038 42.5822
-0.1605 -62.0235 44.0849
-0.7187 -62.4347 45.9171
-1.1773 -62.9383 48.0845
-1.5167 -63.5558 50.6664
17.9357 -62.5482 35.1029
16.4597 -62.3656 34.9105
14.9850 -62.1762 34.6900
13.5674 -62.0105 34.5416
12.2055 -61.8693 34.4680
10.8872 -61.7468 34.4513
9.5975 -61.6353 34.4670
8.3814 -61.5626 34.6065
7.2771 -61.5540 34.9559
6.2440 -61.5882 35.4458
5.2624 -61.6553 36.0446
4.3188 -61.7483 36.7304
3.3904 -61.8539 37.4592
2.4724 -61.9696 38.2230
1.5741 -62.1025 39.0460
0.7172 -62.2690 39.9844
-0.0569 -62.5012 41.1485
-0.7483 -62.8035 42.5548
-1.4269 -63.1281 44.0425
-2.0522 -63.5077 45.7243
-2.3384 -64.1722 48.3924
-2.4719 -64.9918 51.6074
19.0187 -63.7191 34.4947
17.3474 -63.4267 33.9875
15.8722 -63.2323 33.7790
14.4129 -63.0388 33.5677
13.0459 -62.8905 33.4931
11.7233 -62.7617 33.4753
10.4406 -62.6507 33.5101
9.1883 -62.5528 33.5828
7.9943 -62.4862 33.7518
6.8766 -62.4638 34.0600
5.8130 -62.4742 34.4716
4.8124 -62.5252 35.0127
3.8598 -62.6090 35.6600
2.9425 -62.7191 36.3932
2.0348 -62.8393 37.1598
1.1565 -62.9842 38.0088
0.3006 -63.1503 38.9291
-0.4912 -63.3703 40.0284
-1.2257 -63.6426 41.3034
-1.9042 -63.9696 42.7638
-2.5219 -64.3593 44.4374
-2.9980 -64.8820 46.5603
-3.1240 -65.7221 49.7514
20.1117 -64.8972 33.8955
18.3673 -64.5598 33.2918
16.8459 -64.3361 33.0217
15.3310 -64.1070 32.7295
13.9198 -63.9295 32.5874
12.6001 -63.7989 32.5831
11.3210 -63.6870 32.6320
10.0685 -63.5861 32.7109
8.8456 -63.4989 32.8284
7.6649 -63.4341 33.0121
6.5226 -63.3907 33.2593
5.4330 -63.3793 33.6039
4.4162 -63.4156 34.0959
3.4812 -63.5087 34.7650
2.5752 -63.6248 35.5069
1.6909 -63.7600 36.3106
0.8373 -63.9225 37.2015
-0.0356 -64.0761 38.0667
-0.8508 -64.2796 39.0923
-1.5991 -64.5436 40.3140
-2.2963 -64.8596 41.7061
-2.9256 -65.2450 43.3263
-3.4678 -65.7212 45.2454
-3.8050 -66.3965 47.8161
19.5350 -65.7773 32.8346
17.9044 -65.4887 32.4055
16.3385 -65.2268 32.0469
14.8893 -65.0239 31.8545
13.5281 -64.8659 31.7881
12.2459 -64.7496 31.8405
10.9902 -64.6444 31.9219
9.7633 -64.5525 32.0392
8.5711 -64.4785 32.2065
7.3880 -64.4064 32.3768
6.2272 -64.3454 32.5777
5.1299 -64.3243 32.8961
4.1248 -64.3656 33.4015
3.1805 -64.4507 34.0393
2.2851 -64.5736 34.7928
1.4123 -64.7173 35.6106
0.5530 -64.8760 36.4763
-0.3354 -65.0178 37.2919
-1.1520 -65.2215 38.2999
-1.9400 -65.4564 39.4070
-2.6582 -65.7587 40.7268
-3.3235 -66.1189 42.2317
-3.9014 -66.5712 44.0297
-4.3018 -67.2026 46.3963
19.0310 -66.6824 31.8939
17.4304 -66.3973 31.5015
15.9222 -66.1568 31.2284
14.5235 -65.9739 31.1123
13.2168 -65.8406 31.1326
11.9657 -65.7366 31.2324
10.7293 -65.6371 31.3417
9.5266 -65.5549 31.4976
8.3478 -65.4843 31.6841
7.1627 -65.4057 31.8443
6.0052 -65.3419 32.0449
4.9175 -65.3238 32.3763
3.9082 -65.3603 32.8662
2.9379 -65.4256 33.4402
2.0150 -65.5280 34.1238
1.1474 -65.6757 34.9424
0.2725 -65.8228 35.7606
-0.5951 -65.9809 36.6133
-1.4240 -66.1764 37.5795
-2.2459 -66.3853 38.5887
-2.9923 -66.6672 39.8202
-3.6764 -67.0156 41.2568
-4.2634 -67.4666 43.0096
-4.7192 -68.0589 45.1992
20.4228 -68.0352 31.7960
18.5874 -67.6090 31.0531
17.0328 -67.3385 30.7260
15.5773 -67.1189 30.5320
14.2165 -66.9503 30.4727
12.9403 -66.8289 30.5390
11.7143 -66.7347 30.6770
10.5088 -66.6495 30.8369
9.3260 -66.5753 31.0245
8.1549 -66.5053 31.2209
6.9798 -66.4286 31.3958
5.8305 -66.3661 31.6081
4.7444 -66.3461 31.9382
3.7178 -66.3683 32.3865
2.7277 -66.4177 32.9118
1.7665 -66.4903 33.5032
0.8765 -66.6209 34.2612
0.0126 -66.7768 35.0937
-0.8398 -66.9478 35.9714
-1.6776 -67.1374 36.9051
-2.4846 -67.3608 37.9398
-3.2479 -67.6319 39.1166
-3.9470 -67.9723 40.5004
-4.5459 -68.4203 42.2061
-5.0545 -68.9746 44.2322
-5.4393 -69.6757 46.7020
20.0823 -69.0288 31.1314
18.3599 -68.6560 30.5656
16.7456 -68.3375 30.1350
15.3140 -68.1235 29.9752
13.9842 -67.9668 29.9634
12.7248 -67.8500 30.0540
11.5170 -67.7624 30.2198
10.3341 -67.6876 30.4168
9.1514 -67.6089 30.6007
7.9903 -67.5415 30.8123
6.8233 -67.4661 30.9994
5.6697 -67.3966 31.1997
4.5756 -67.3676 31.5090
3.5387 -67.3800 31.9310
2.5378 -67.4198 32.4276
1.5800 -67.4943 33.0203
0.6649 -67.6054 33.7152
-0.1999 -67.7616 34.5375
-1.0417 -67.9429 35.4319
-1.8698 -68.1429 36.3811
-2.6622 -68.3824 37.4446
-3.4359 -68.6487 38.5872
-4.1474 -68.9840 39.9300
-4.7740 -69.4148 41.5509
-5.3562 -69.9090 43.3600
-5.6747 -70.6899 46.0012
19.8284 -70.0674 30.6059
18.1198 -69.6899 30.0579
16.5375 -69.3801 29.6760
15.1254 -69.1702 29.5453
13.8222 -69.0244 29.5761
12.5715 -68.9081 29.6792
11.3617 -68.8146 29.8387
10.1821 -68.7379 30.0390
9.0073 -68.6606 30.2348
7.8549 -68.5956 30.4604
6.6994 -68.5247 30.6677
5.5424 -68.4488 30.8588
4.4281 -68.4016 31.1243
3.3910 -68.4121 31.5422
2.3850 -68.4467 32.0241
1.4348 -68.5271 32.6292
0.5299 -68.6475 33.3430
-0.3446 -68.7978 34.1390
-1.1861 -68.9821 35.0297
-2.0056 -69.1931 35.9954
-2.8120 -69.4244 37.0195
-3.5840 -69.6971 38.1610
-4.2868 -70.0475 39.5213
-4.9369 -70.4652 41.0734
-5.5274 -70.9619 42.8521
-5.9739 -71.6303 45.1184
19.6102 -71.1230 30.1376
17.9237 -70.7468 29.6222
16.3906 -70.4586 29.3188
15.0140 -70.2649 29.2465
13.7208 -70.1205 29.2937
12.4680 -69.9980 29.3926
11.2434 -69.8901 29.5246
10.0482 -69.7983 29.6945
8.8861 -69.7264 29.9121
7.7397 -69.6624 30.1474
6.5820 -69.5863 30.3488
5.4218 -69.5042 30.5319
4.3219 -69.4654 30.8249
3.2849 -69.4747 31.2414
2.2798 -69.5094 31.7234
1.3427 -69.6015 32.3556
0.4521 -69.7362 33.1007
-0.4219 -69.8900 33.8974
-1.2778 -70.0655 34.7534
-2.1149 -70.2649 35.6748
-2.9218 -70.5002 36.6949
-3.6761 -70.7958 37.8794
-4.3864 -71.1471 39.2182
-5.0402 -71.5710 40.7582
-5.6203 -72.0905 42.5633
-6.1147 -72.7254 44.6904
-6.3391 -73.6840 47.7109
19.4738 -72.2276 29.7998
17.7912 -71.8422 29.2900
16.2816 -71.5605 29.0245
14.9349 -71.3808 29.0023
13.6489 -71.2364 29.0623
12.3863 -71.1027 29.1443
11.1491 -70.9815 29.2537
9.9451 -70.8795 29.4068
8.7845 -70.8054 29.6265
7.6419 -70.7412 29.8681
6.4765 -70.6556 30.0535
5.3117 -70.5661 30.2260
4.2430 -70.5501 30.5816
3.2278 -70.5766 31.0438
2.2343 -70.6215 31.5517
1.2934 -70.7122 32.1767
0.4083 -70.8549 32.9354
-0.4560 -71.0211 33.7560
-1.3132 -71.2000 34.6111
-2.1690 -71.3870 35.4890
-2.9812 -71.6231 36.4970
-3.7460 -71.9156 37.6551
-4.4579 -72.2740 38.9899
-5.0905 -72.7303 40.5870
-5.6595 -73.2752 42.4248
-6.2390 -73.8352 44.3107
-6.6200 -74.6436 46.8648
19.3739 -73.3550 29.5201
17.7282 -72.9835 29.0706
16.2134 -72.6898 28.7977
14.8628 -72.5016 28.7697
13.5760 -72.3520 28.8289
12.3174 -72.2166 28.9185
11.0737 -72.0865 29.0166
9.8572 -71.9714 29.1473
8.6878 -71.8872 29.3498
7.5471 -71.8215 29.5944
6.3898 -71.7390 29.7951
5.2399 -71.6582 29.9974
4.1895 -71.6560 30.3906
3.2000 -71.7045 30.9078
2.2263 -71.7675 31.4607
1.2819 -71.8578 32.0815
0.3805 -71.9897 32.8064
-0.5043 -72.1413 33.5819
-1.3562 -72.3295 34.4509
-2.2082 -72.5247 35.3396
-3.0250 -72.7624 36.3382
-3.7870 -73.0653 37.5053
-4.5069 -73.4248 38.8212
-5.1461 -73.8858 40.4019
-5.7423 -74.4152 42.1651
-6.3501 -74.9576 43.9693
-6.7472 -75.7671 46.4729
19.4042 -74.5720 29.4473
17.6994 -74.1494 28.9062
16.1975 -73.8571 28.6573
14.8196 -73.6439 28.5857
13.5208 -73.4809 28.6259
12.2635 -73.3424 28.7189
11.0278 -73.2143 28.8326
9.8058 -73.0913 28.9546
8.6171 -72.9892 29.1223
7.4716 -72.9170 29.3579
6.3377 -72.8506 29.6048
5.2243 -72.7977 29.8814
4.1700 -72.7923 30.2697
3.1864 -72.8471 30.8019
2.2351 -72.9317 31.4058
1.2989 -73.0324 32.0490
0.3925 -73.1639 32.7674
-0.5182 -73.2956 33.4876
-1.3906 -73.4692 34.3112
-2.2394 -73.6726 35.2101
-3.0400 -73.9329 36.2518
-3.8025 -74.2435 37.4213
-4.5206 -74.6147 38.7457
-5.1856 -75.0605 40.2612
-5.8327 -75.5471 41.8850
-6.4194 -76.1262 43.7486
-6.7861 -76.9915 46.3421
17.8190 -75.4244 28.9821
16.2618 -75.0855 28.6491
14.8340 -74.8305 28.4987
13.5120 -74.6460 28.5025
12.2388 -74.4916 28.5703
11.0055 -74.3620 28.6907
9.7889 -74.2400 28.8250
8.5894 -74.1265 28.9751
7.4210 -74.0333 29.1691
6.2992 -73.9749 29.4409
5.2199 -73.9497 29.7879
4.1727 -73.9505 30.1939
3.1748 -73.9944 30.6999
2.2225 -74.0805 31.3047
1.2969 -74.1939 31.9745
0.3990 -74.3372 32.7159
-0.4970 -74.4874 33.4747
-1.3742 -74.6616 34.2923
-2.2264 -74.8679 35.1884
-3.0280 -75.1349 36.2331
-3.8009 -75.4435 37.3816
-4.5191 -75.8251 38.7109
-5.2080 -76.2567 40.1671
-5.8775 -76.7307 41.7326
-6.4567 -77.3333 43.6199
-6.7455 -78.3143 46.4467
17.9907 -76.7451 29.1414
16.3946 -76.3707 28.7532
14.9108 -76.0684 28.5163
13.5472 -75.8481 28.4544
12.2517 -75.6729 28.4876
11.0161 -75.5385 28.6076
9.7993 -75.4137 28.7453
8.5922 -75.2914 28.8849
7.4096 -75.1842 29.0554
6.2766 -75.1148 29.3082
5.2017 -75.0928 29.6663
4.1675 -75.1055 30.1020
3.1708 -75.1518 30.6137
2.2090 -75.2316 31.2017
1.2739 -75.3390 31.8536
0.3760 -75.4861 32.5978
-0.4817 -75.6783 33.4481
-1.3333 -75.8839 34.3317
-2.1848 -76.0978 35.2365
-2.9961 -76.3629 36.2642
-3.7725 -76.6772 37.4108
-4.4861 -77.0752 38.7593
-5.1837 -77.5097 40.1997
-5.8690 -77.9791 41.7292
-6.3169 -78.7554 43.9990
18.2276 -78.1241 29.4049
16.5755 -77.7006 28.9357
15.0462 -77.3580 28.6319
13.6394 -77.0999 28.5038
12.3211 -76.9034 28.5035
11.0705 -76.7547 28.6027
9.8356 -76.6128 28.7127
8.6130 -76.4751 28.8281
7.4250 -76.3613 28.9925
6.2831 -76.2829 29.2320
5.2029 -76.2563 29.5837
4.1668 -76.2679 30.0190
3.1708 -76.3166 30.5359
2.2002 -76.3904 31.1087
1.2659 -76.5016 31.7658
0.3730 -76.6578 32.5249
-0.4728 -76.8673 33.4065
-1.3073 -77.0968 34.3356
-2.1551 -77.3214 35.2556
-2.9603 -77.6013 36.3052
-3.7120 -77.9526 37.5223
-4.4199 -78.3696 38.8955
-5.1385 -78.7932 40.2893
-5.8003 -79.3049 41.8936
18.5274 -79.5634 29.7687
16.8289 -79.0974 29.2367
15.2529 -78.7126 28.8664
13.7978 -78.4122 28.6662
12.4457 -78.1856 28.6157
11.1557 -78.0022 28.6522
9.8986 -77.8395 28.7283
8.6708 -77.6953 28.8401
7.4845 -77.5816 29.0137
6.3451 -77.5052 29.2644
5.2559 -77.4711 29.6043
4.2102 -77.4755 30.0261
3.1909 -77.5043 30.5000
2.2105 -77.5714 31.0567
1.2772 -77.6871 31.7204
0.4032 -77.8672 32.5266
-0.4468 -78.0789 33.4046
-1.2890 -78.3071 34.3212
-2.1331 -78.5424 35.2561
-2.9123 -78.8596 36.3766
-3.6439 -79.2446 37.6535
-4.3676 -79.6562 38.9952
-5.0198 -80.1721 40.5783
-5.4902 -80.9352 42.7298
18.8458 -81.0312 30.1608
17.1081 -80.5271 29.5786
15.5128 -80.1217 29.1892
14.0151 -79.7828 28.9286
12.6242 -79.5214 28.8216
11.2990 -79.3064 28.8053
10.0177 -79.1212 28.8461
8.7833 -78.9701 28.9538
7.5917 -78.8514 29.1257
6.4478 -78.7713 29.3757
5.3595 -78.7396 29.7258
4.3129 -78.7457 30.1541
3.2649 -78.7497 30.5768
2.2707 -78.8066 31.1115
1.3255 -78.9149 31.7561
0.4494 -79.0988 32.5643
-0.3948 -79.3237 33.4627
-1.2560 -79.5387 34.3419
-2.0746 -79.8096 35.3450
-2.8371 -80.1558 36.5159
-3.5500 -80.5749 37.8510
-4.2150 -81.0700 39.3588
-4.6845 -81.8271 41.4529
17.4919 -82.0563 30.0912
15.8365 -81.5970 29.6177
14.3171 -81.2368 29.3350
12.8885 -80.9416 29.1765
11.5185 -80.6867 29.0937
10.2060 -80.4733 29.0896
8.9489 -80.3015 29.1661
7.7383 -80.1657 29.3123
6.6031 -80.0951 29.5894
5.5024 -80.0541 29.9251
4.4210 -80.0295 30.2929
3.3608 -80.0241 30.6989
2.3614 -80.0798 31.2313
1.4016 -80.1781 31.8528
0.5093 -80.3515 32.6328
-0.3348 -80.5838 33.5389
-1.1380 -80.8708 34.5634
-1.9169 -81.1973 35.6751
-2.6638 -81.5749 36.8999
-3.3627 -82.0262 38.2874
-3.8703 -82.7315 40.2278
-4.1095 -83.8055 42.9753
16.3496 -83.2496 30.3624
14.7411 -82.8116 29.9489
13.2474 -82.4591 29.6957
11.8273 -82.1595 29.5406
10.4763 -81.9113 29.4818
9.1869 -81.7107 29.5128
7.9571 -81.5582 29.6358
6.8041 -81.4734 29.8913
5.6782 -81.4110 30.1895
4.5857 -81.3788 30.5466
3.5683 -81.4213 31.0542
2.5728 -81.4874 31.6093
1.6067 -81.5866 32.2321
0.6809 -81.7330 32.9524
-0.1888 -81.9471 33.8135
-0.9698 -82.2705 34.9036
-1.7016 -82.6646 36.1447
-2.3580 -83.1653 37.6135
-3.0260 -83.6744 39.1060
-2.9161 -85.1768 42.6986
17.0669 -85.1029 31.4470
15.3969 -84.6119 30.9576
13.7830 -84.1535 30.5221
12.2875 -83.7869 30.2562
10.8961 -83.5038 30.1456
9.5868 -83.2874 30.1600
8.3361 -83.1191 30.2639
7.1700 -83.0270 30.5139
6.0223 -82.9490 30.7891
4.9336 -82.9274 31.1738
3.9265 -82.9896 31.7238
2.9426 -83.0780 32.3258
1.9827 -83.1954 32.9858
1.0303 -83.3250 33.6708
0.1187 -83.5056 34.4598
-0.7185 -83.7797 35.4398
-1.4559 -84.1835 36.6873
-2.1311 -84.6807 38.1305
16.2860 -86.6521 32.3623
14.5355 -86.0723 31.7249
12.9096 -85.5882 31.2588
11.4719 -85.2657 31.0920
10.1462 -85.0394 31.1029
8.8972 -84.8798 31.2372
7.7098 -84.7755 31.4741
6.5177 -84.6613 31.6887
5.3570 -84.5745 31.9537
4.3077 -84.6027 32.4401
3.3197 -84.6978 33.0566
2.3605 -84.8279 33.7421
1.4248 -84.9894 34.4898
0.5379 -85.2134 35.3624
-0.2825 -85.5253 36.4116
-0.9205 -86.0718 37.9322
15.4937 -88.2177 33.2836
13.8501 -87.7228 32.8262
12.2782 -87.2793 32.4558
10.8796 -86.9909 32.3677
9.5696 -86.7804 32.4204
8.3651 -86.6698 32.6569
7.1854 -86.5800 32.9299
6.0124 -86.4929 33.2052
4.7523 -86.3062 33.2873
3.7096 -86.3533 33.8135
2.7953 -86.5475 34.6223
1.9525 -86.8318 35.6065
1.0399 -87.0447 36.4548
0.1260 -87.2642 37.3176
11.9605 -89.3286 34.2759
10.6396 -89.1236 34.3571
9.2502 -88.8378 34.2847
8.0840 -88.7794 34.6284
6.9887 -88.7953 35.1082
5.8980 -88.8161 35.5957
4.7683 -88.7922 35.9982
3.9934 -89.1784 37.1719
3.5423 -89.9638 39.1049
3.9608 -60.4208 53.2775
4.4181 -60.7211 54.3271
5.2142 -61.0259 55.1971
7.6399 -61.6553 56.5336
8.9678 -61.9774 57.1661
10.5188 -62.3086 57.7070
1.9281 -60.6547 50.1540
1.9259 -60.9474 51.4658
2.0807 -61.2402 52.6778
2.4002 -61.5342 53.7910
2.8540 -61.8302 54.8272
3.4958 -62.1303 55.7626
4.4735 -62.4398 56.5266
5.7651 -62.7604 57.1409
7.2089 -63.0893 57.6956
8.6285 -63.4217 58.2808
9.7558 -63.7479 59.0231
12.2338 -64.1276 59.1485
1.1674 -60.6092 44.9081
0.6938 -60.8992 46.5560
0.4336 -61.1876 48.0508
0.5186 -61.4785 49.3214
0.5069 -61.7652 50.6382
0.5843 -62.0515 51.8917
0.8237 -62.3398 53.0437
1.2080 -62.6309 54.1094
1.7062 -62.9249 55.1103
2.3030 -63.2222 56.0582
3.0766 -63.5261 56.9157
4.1606 -63.8430 57.6203
5.4438 -64.1706 58.2371
7.0605 -64.5157 58.7066
8.2585 -64.8473 59.3988
9.6563 -65.1913 60.0111
11.6813 -65.5699 60.3533
0.4181 -61.4571 43.6627
-0.0838 -61.7387 45.3428
-0.2825 -62.0223 46.8100
-0.5222 -62.3013 48.2849
-0.6354 -62.5801 49.6662
-0.6390 -62.8593 50.9683
-0.5213 -63.1400 52.1884
-0.2144 -63.4255 53.2923
0.1874 -63.7138 54.3387
0.6901 -64.0056 55.3275
1.2838 -64.3013 56.2673
1.9830 -64.6022 57.1534
2.8429 -64.9116 57.9610
3.8953 -65.2321 58.6791
5.1491 -65.5654 59.3092
6.5890 -65.9122 59.8649
7.9531 -66.2589 60.4750
9.5891 -66.6251 60.9767
11.7704 -67.0291 61.2548
-0.3874 -62.3028 42.4559
-0.9818 -62.5735 44.2103
-1.2553 -62.8487 45.7336
-1.5811 -63.1181 47.2702
-1.7161 -63.3903 48.6699
-1.6818 -63.6659 49.9522
-1.6061 -63.9408 51.1987
-1.4365 -64.2178 52.3805
-1.1273 -64.4995 53.4750
-0.7040 -64.7857 54.5011
-0.1838 -65.0764 55.4720
0.4318 -65.3722 56.3918
1.1114 -65.6721 57.2799
1.8467 -65.9759 58.1428
2.6948 -66.2875 58.9534
3.6753 -66.6087 59.7054
4.8046 -66.9414 60.3950
6.2401 -67.2969 60.9521
7.7530 -67.6616 61.4920
9.5305 -68.0490 61.9317
12.6304 -68.5364 61.8097
-0.8952 -63.1568 41.0515
-1.5621 -63.4167 42.8734
-1.9163 -63.6827 44.4628
-2.3272 -63.9421 46.0669
-2.5342 -64.2059 47.5206
-2.5822 -64.4735 48.8592
-2.5330 -64.7431 50.1255
-2.4299 -65.0133 51.3489
-2.2360 -65.2865 52.5098
-1.9234 -65.5647 53.5954
-1.5053 -65.8482 54.6174
-0.9627 -66.1387 55.5686
-0.3072 -66.4364 56.4595
0.3744 -66.7365 57.3396
1.0432 -67.0366 58.2298
1.8403 -67.3463 59.0582
2.7609 -67.6661 59.8311
3.8018 -67.9964 60.5539
4.9657 -68.3383 61.2290
6.3325 -68.6985 61.8226
7.9235 -69.0801 62.3312
-1.8141 -64.2758 41.3107
-2.3060 -64.5295 43.0105
-2.7848 -64.7791 44.6768
-3.0880 -65.0327 46.2060
-3.2540 -65.2898 47.6288
-3.2992 -65.5505 48.9605
-3.2443 -65.8143 50.2181
-3.1290 -66.0798 51.4287
-2.8998 -66.3506 52.5635
-2.5533 -66.6278 53.6243
-2.1313 -66.9094 54.6388
-1.6213 -67.1968 55.6025
-0.9936 -67.4926 56.5022
-0.3139 -67.7930 57.3768
0.3417 -68.0923 58.2675
1.1137 -68.4015 59.1018
2.0148 -68.7222 59.8770
3.0371 -69.0546 60.6011
4.1638 -69.3980 61.2857
5.4298 -69.7561 61.9175
6.8658 -70.1324 62.4865
8.6299 -70.5420 62.9267
11.3056 -71.0404 62.9914
-2.7681 -65.3772 41.5985
-3.1799 -65.6230 43.2382
-3.5771 -65.8653 44.8451
-3.7955 -66.1141 46.3144
-3.9127 -66.3660 47.7017
-3.9479 -66.6204 49.0228
-3.8799 -66.8793 50.2678
-3.7101 -67.1434 51.4412
-3.4423 -67.4131 52.5490
-3.0900 -67.6881 53.6024
-2.6731 -67.9675 54.6153
-2.1877 -68.2520 55.5882
-1.6081 -68.5441 56.5090
-0.9570 -68.8426 57.3931
-0.2834 -69.1438 58.2684
0.4731 -69.4530 59.1047
1.3447 -69.7736 59.8883
2.3509 -70.1082 60.6133
3.4786 -70.4563 61.2899
4.6866 -70.8146 61.9414
5.9806 -71.1844 62.5673
7.5686 -71.5865 63.0761
9.6296 -72.0408 63.3975
12.6307 -72.5980 63.3432
-2.9288 -66.2469 39.9696
-3.6267 -66.4682 41.8260
-3.9624 -66.7076 43.4089
-4.2534 -66.9462 44.9409
-4.4156 -67.1903 46.3696
-4.5060 -67.4365 47.7360
-4.5369 -67.6846 49.0508
-4.4165 -67.9420 50.2597
-4.1847 -68.2067 51.3922
-3.9200 -68.4729 52.4986
-3.5938 -68.7434 53.5636
-3.2057 -69.0186 54.5891
-2.7239 -69.3016 55.5595
-2.1704 -69.5911 56.4900
-1.5178 -69.8901 57.3682
-0.8324 -70.1930 58.2321
-0.0944 -70.5019 59.0728
0.7431 -70.8217 59.8680
1.7337 -71.1584 60.5944
2.8714 -71.5122 61.2595
4.0620 -71.8743 61.9124
5.2874 -72.2430 62.5630
6.7425 -72.6395 63.1238
8.5848 -73.0825 63.5313
11.0905 -73.6050 63.6769
-3.5056 -67.3577 40.0093
-4.0782 -67.5746 41.7783
-4.5169 -67.7966 43.4295
-4.7999 -68.0266 44.9538
-4.9839 -68.2609 46.3939
-5.0503 -68.5020 47.7418
-5.0249 -68.7484 49.0179
-4.8757 -69.0036 50.2062
-4.6691 -69.2625 51.3510
-4.4212 -69.5239 52.4641
-4.1132 -69.7900 53.5361
-3.7584 -70.0600 54.5766
-3.2905 -70.3405 55.5502
-2.7255 -70.6306 56.4694
-2.0741 -70.9300 57.3433
-1.3682 -71.2358 58.1913
-0.6167 -71.5475 59.0200
0.2194 -71.8694 59.8108
1.2170 -72.2106 60.5283
2.3103 -72.5645 61.2093
3.4625 -72.9277 61.8743
4.6919 -73.3026 62.5163
6.0695 -73.6978 63.1053
7.7934 -74.1378 63.5569
10.0010 -74.6412 63.8211
-3.9959 -68.4668 39.9909
-4.5208 -68.6754 41.7262
-4.9846 -68.8847 43.3938
-5.2925 -69.1034 44.9332
-5.4495 -69.3323 46.3536
-5.4706 -69.5708 47.6702
-5.4064 -69.8153 48.9200
-5.2673 -70.0653 50.1126
-5.0902 -70.3176 51.2733
-4.8708 -70.5730 52.4009
-4.6066 -70.8319 53.4955
-4.2752 -71.0971 54.5459
-3.8072 -71.3764 55.5153
-3.2248 -71.6682 56.4205
-2.5641 -71.9692 57.2848
-1.8560 -72.2764 58.1273
-1.1021 -72.5900 58.9502
-0.2559 -72.9155 59.7312
0.7092 -73.2567 60.4599
1.7258 -73.6062 61.1729
2.8267 -73.9682 61.8561
4.0414 -74.3469 62.4980
5.4281 -74.7503 63.0753
7.0240 -75.1840 63.5761
8.9775 -75.6686 63.9413
-4.2780 -69.5878 39.8277
-4.8437 -69.7813 41.5929
-5.3410 -69.9768 43.2841
-5.6671 -70.1848 44.8356
-5.8085 -70.4077 46.2450
-5.8011 -70.6432 47.5422
-5.7338 -70.8831 48.7891
-5.6214 -71.1260 49.9973
-5.4812 -71.3705 51.1789
-5.3304 -71.6148 52.3455
-5.0865 -71.8684 53.4491
-4.7310 -72.1339 54.4822
-4.2335 -72.4155 55.4314
-3.6324 -72.7097 56.3227
-2.9794 -73.0107 57.1877
-2.2624 -73.3204 58.0217
-1.5164 -73.6347 58.8451
-0.7408 -73.9540 59.6584
0.1403 -74.2881 60.4244
1.1250 -74.6374 61.1472
2.2003 -75.0007 61.8363
3.4055 -75.3838 62.4757
4.7963 -75.7949 63.0436
6.4048 -76.2394 63.5309
8.1664 -76.7096 63.9724
10.6302 -77.2837 64.1349
-4.3912 -70.7231 39.5454
-5.0272 -70.8981 41.3634
-5.5515 -71.0800 43.0758
-5.8859 -71.2782 44.6347
-6.0614 -71.4905 46.0675
-6.1226 -71.7129 47.4094
-6.0933 -71.9434 48.6797
-6.0162 -72.1777 49.9085
-5.8934 -72.4159 51.0989
-5.7549 -72.6546 52.2709
-5.5249 -72.9032 53.3801
-5.1286 -73.1717 54.3865
-4.5991 -73.4568 55.3145
-3.9846 -73.7531 56.1955
-3.3231 -74.0562 57.0530
-2.6142 -74.3664 57.8884
-1.9115 -74.6769 58.7315
-1.1975 -74.9899 59.5731
-0.3574 -75.3213 60.3553
0.6043 -75.6712 61.0844
1.6529 -76.0353 61.7809
2.8004 -76.4159 62.4416
4.2168 -76.8380 62.9905
5.9058 -77.3038 63.4337
7.7457 -77.7964 63.8335
9.8943 -78.3405 64.1253
-4.4526 -71.8649 39.2258
-5.1096 -72.0255 41.0632
-5.6265 -72.1976 42.7746
-5.9901 -72.3837 44.3566
-6.2640 -72.5770 45.8573
-6.3983 -72.7845 47.2478
-6.3943 -73.0066 48.5341
-6.3686 -73.2297 49.7946
-6.2743 -73.4599 51.0012
-6.1227 -73.6962 52.1635
-5.8610 -73.9458 53.2521
-5.4063 -74.2206 54.2224
-4.8523 -74.5089 55.1346
-4.2559 -74.8036 56.0240
-3.6118 -75.1055 56.8892
-2.9476 -75.4111 57.7465
-2.2529 -75.7219 58.5911
-1.5400 -76.0363 59.4304
-0.7339 -76.3656 60.2267
0.2100 -76.7167 60.9608
1.2246 -77.0804 61.6697
2.3122 -77.4573 62.3543
3.7355 -77.8883 62.8938
5.4412 -78.3670 63.3229
7.2936 -78.8733 63.7103
9.3640 -79.4193 64.0289
-4.4254 -73.0193 38.8422
-5.1414 -73.1606 40.7269
-5.6767 -73.3197 42.4556
-6.0888 -73.4906 44.0743
-6.4542 -73.6640 45.6390
-6.6469 -73.8570 47.0691
-6.6932 -74.0670 48.3881
-6.6942 -74.2812 49.6649
-6.6033 -74.5064 50.8728
-6.4138 -74.7440 52.0107
-6.0956 -74.9989 53.0645
-5.6052 -75.2781 54.0128
-5.0666 -75.5646 54.9330
-4.4949 -75.8563 55.8352
-3.8737 -76.1560 56.7114
-3.2345 -76.4591 57.5804
-2.5758 -76.7660 58.4419
-1.8223 -77.0884 59.2574
-1.0044 -77.4220 60.0453
