42.5183 -39.7856 31.0939
42.3640 -41.0686 50.3828
23.9407 -53.7762 20.1980
7.7576 -64.5506 12.0981
31.8946 -37.3940 52.1130
-2.5896 -60.1476 35.0659
-14.2920 -53.4315 1.8633
31.7229 -45.4437 23.9541
-19.7272 -51.2799 0.3266
8.3943 -54.7872 11.3750
20.9945 -39.1044 27.6877
43.9315 -41.8171 49.3493
45.1142 -40.8492 31.9613
-22.9226 -38.4778 9.4797
10.0625 -44.8932 23.6864
5.2331 -41.7667 19.1409
21.9517 -50.3805 49.4125
-23.4841 -38.5199 16.2326
10.8567 -44.7800 23.6669
6.6255 -42.5423 26.3076
34.0350 -46.8549 54.3145
-0.3206 -70.5002 19.6566
-5.0771 -46.7988 27.5217
33.3030 -35.0043 50.5135
12.5157 -44.3279 23.7968
18.7574 -58.7947 49.6518
31.0854 -42.4830 23.7592
22.8385 -70.4644 28.3513
-14.1115 -40.4445 2.9946
-15.8673 -41.7526 22.0651
29.6087 -63.2351 40.9697
-10.5922 -53.6546 3.1400
24.1870 -60.3945 49.9431
-13.7913 -50.8334 25.8338
1.2581 -69.6844 28.4196
-6.1826 -65.8837 27.9871
-0.2576 -48.8507 6.1891
26.9871 -52.1623 53.6622
-3.2798 -67.9923 19.3789
-2.4023 -45.3733 7.7187
13.8307 -65.0884 44.3979
26.0497 -49.3395 21.9691
38.3420 -34.5492 30.7498
14.5465 -44.1246 24.2976
30.9838 -63.7063 38.8274
32.2993 -62.5787 32.2912
26.0980 -61.1551 49.2644
-19.0365 -49.2576 23.8363
15.1132 -55.4445 47.0256
9.5708 -52.2828 39.7426
20.6071 -38.0287 42.2184
3.4938 -49.8982 33.7755
2.2896 -49.3195 7.2300
-7.2718 -43.6443 4.7679
-24.6152 -55.9033 18.1227
-10.9681 -40.3700 3.7058
9.6915 -43.5849 22.1351
-7.2738 -56.0247 33.0809
37.7360 -55.4848 31.5845
19.6342 -67.8298 20.5860
32.4918 -51.8289 28.2953
15.8723 -44.3673 24.0757
11.8554 -42.3719 25.4169
-11.1789 -51.6508 27.9623
5.1840 -49.4580 8.2126
-16.9181 -59.0856 23.9626
-22.8109 -55.8716 24.6410
10.0333 -59.9285 12.5998
-11.8735 -40.4656 20.3960
-19.2485 -38.9249 19.6124
-7.9833 -53.7380 3.9491
29.4461 -60.1854 49.5850
39.0491 -47.0460 52.4943
5.2407 -69.2434 33.3238
10.3295 -47.7588 37.2119
-21.9471 -55.8679 25.0012
40.7609 -35.5177 47.5919
-27.4524 -53.1264 13.5894
-21.3073 -47.4990 23.1452
24.9741 -37.2695 26.3443
-26.8713 -44.0332 18.5696
40.4718 -56.1647 35.4144
1.9026 -46.6649 10.7414
-20.4682 -55.8031 7.8924
-20.7760 -55.8813 24.7852
-9.5961 -41.1837 3.9762
23.5732 -47.5129 22.0792
-26.8580 -52.5614 13.6086
19.0563 -43.4660 23.5800
4.1071 -56.5794 38.0154
-19.9598 -36.0306 10.2252
13.8406 -42.1676 25.4385
-10.6485 -50.9859 2.9783
-13.2242 -58.8000 6.0753
-2.6041 -44.6759 23.8719
-19.0822 -55.7239 25.2821
21.0307 -43.6898 23.2549
13.7899 -43.0920 35.9110
31.0701 -61.1461 29.8663
9.5138 -69.4099 32.9346
41.2382 -42.5411 51.1736
-15.1966 -48.8118 24.4996
20.5567 -53.4443 18.9431
13.9228 -51.9827 16.8066
37.9044 -52.4711 30.8683
-1.8754 -43.9684 23.7124
-6.6080 -41.2968 23.2878
10.7608 -60.1253 45.2320
20.9236 -46.3139 44.9629
-4.1522 -54.9234 33.4856
-1.9825 -64.0496 9.2875
10.3003 -48.9317 17.8844
4.0985 -46.7511 11.5982
21.5400 -65.1186 47.5913
0.0266 -44.7648 23.7806
0.8840 -46.6053 10.0339
-11.5543 -39.0469 18.8034
26.9813 -56.6833 23.7049
10.0397 -69.4347 37.6687
7.1438 -69.8152 34.7688
20.4082 -56.4267 19.0927
4.8502 -56.1828 8.8623
28.9225 -58.2459 51.8717
23.2624 -64.9774 47.6353
34.4755 -49.6138 28.1132
-15.6122 -56.5270 26.5243
-3.6104 -41.5687 22.7195
-21.9471 -53.1242 23.5280
-27.0704 -49.9814 13.5875
40.7573 -43.2422 30.5618
-21.0326 -43.0641 1.8982
30.5579 -49.7584 55.5752
3.5607 -54.2453 7.7080
0.5088 -56.2883 34.7062
18.2712 -53.0973 18.1636
17.5979 -53.5313 48.2801
-20.2060 -42.4770 1.6100
-3.0793 -61.9174 34.1680
0.1613 -41.6711 22.7354
25.7102 -45.0366 21.9322
7.8161 -67.3396 41.1415
14.0521 -48.9338 18.9435
-3.1042 -60.9228 7.2461
21.0204 -41.4409 25.0144
-8.6130 -50.2208 28.6764
-12.7632 -46.3139 24.6954
3.1991 -64.1305 11.2849
-18.9560 -44.1709 22.2420
-1.8016 -60.8132 7.1950
-7.2230 -58.5860 34.7582
-19.4063 -54.5451 25.1315
21.6787 -43.2071 45.8068
5.9074 -53.2016 37.0227
2.0641 -51.5970 33.9625
10.6345 -66.3276 13.6306
-0.7308 -60.4897 7.4053
28.8256 -34.3059 29.1593
29.7287 -35.1014 49.7347
-8.6378 -58.7070 5.8627
-6.0704 -58.6451 34.9636
-5.5852 -48.6246 29.2060
40.4817 -40.5772 29.8439
-15.7708 -43.2200 22.4379
0.3015 -61.5696 36.8051
-11.4186 -55.2384 3.3862
0.5588 -50.8562 5.7478
17.2953 -69.5716 20.3882
28.5326 -55.6638 25.1046
23.0689 -51.7832 20.0541
22.9158 -62.6244 49.4571
23.4597 -63.7835 23.3218
29.0068 -44.2774 22.5848
-21.2353 -50.2644 0.8974
24.3381 -41.9431 22.9394
30.2936 -56.3513 53.3158
-14.5685 -43.8534 22.8767
18.8198 -49.0876 20.1104
30.9611 -33.8735 29.2304
-18.9757 -40.3666 21.0423
-4.3332 -58.6442 5.6075
7.5910 -43.6938 19.4365
-8.1873 -56.2335 32.6947
24.6201 -63.4372 48.7988
13.8762 -57.3639 46.6981
-14.5486 -42.7518 2.9728
26.9888 -31.5824 43.1770
-17.8925 -50.6904 24.8392
26.4769 -41.5088 22.9396
-24.7834 -47.9792 9.6237
-2.1874 -49.3051 31.0765
-2.8807 -47.7600 6.0790
19.9891 -47.4398 21.3925
-19.0056 -41.0678 1.8852
14.4963 -45.9401 22.5788
-1.2257 -58.6853 35.3552
-8.7787 -55.5448 4.1236
9.1597 -53.9023 12.0046
3.6445 -51.1892 7.2416
27.1486 -52.1991 22.1162
37.5583 -36.7800 29.0999
10.5774 -65.4241 42.9015
-21.9600 -37.2178 9.5615
-5.9537 -56.2001 33.6148
21.6347 -61.0582 49.9288
-17.9367 -50.1441 -0.2113
-1.6970 -68.7808 29.1636
5.1184 -51.6505 8.3119
13.0916 -67.4241 39.1636
-10.8271 -43.9673 23.0031
36.3767 -35.9395 49.2693
5.0397 -61.5548 41.8058
1.1967 -58.7996 7.8965
-21.4497 -37.6327 16.3270
11.6489 -44.2013 23.9923
17.8646 -54.9616 49.3050
17.5103 -54.7376 17.5457
-6.4541 -65.3760 29.3590
34.8249 -54.3369 53.0578
-16.8756 -60.5074 17.5952
-5.3363 -45.7578 26.5939
-5.1542 -43.7925 5.7905
-16.4896 -40.2752 2.2692
18.7447 -57.6725 18.1795
-27.0712 -43.9103 13.6863
2.8712 -48.7153 32.5148
42.7244 -37.7992 47.6081
40.3751 -37.8542 30.4967
-26.4571 -54.8273 16.2074
18.5912 -46.9188 21.6068
-20.1180 -37.5767 5.0544
36.2157 -44.4646 26.2244
30.4408 -43.9401 54.5991
-9.4336 -62.8541 20.5489
35.9827 -54.5518 30.1939
19.1664 -66.2330 19.6648
-9.7093 -42.3309 3.7390
-19.4905 -37.5511 4.5916
42.8542 -47.5712 33.8560
32.4259 -43.3080 54.3786
15.4778 -54.0376 46.2510
-19.3042 -57.9247 22.9113
-24.4155 -54.7454 18.8249
32.4881 -32.3957 47.6527
9.9856 -41.6455 23.6216
9.2555 -42.0023 22.1952
-16.1208 -50.3698 0.1701
-23.1649 -46.2597 22.4765
-7.7606 -63.7499 30.2801
3.9994 -48.1637 10.1618
21.6438 -66.7401 41.3285
29.2407 -49.1700 54.8954
4.2554 -60.0976 10.0892
22.3203 -57.3051 20.3459
16.2493 -53.1144 17.3899
9.0122 -61.5446 43.9693
-1.4091 -56.4864 33.9934
10.7934 -41.9548 23.3700
27.5972 -60.3707 49.5908
22.0985 -56.8392 50.5428
17.7728 -62.9957 17.1514
14.0938 -59.5456 14.4543
8.0264 -56.2605 11.2582
0.2178 -55.5222 6.5222
-5.9622 -52.4913 4.4570
39.0500 -45.3673 30.7049
0.8250 -66.5375 32.4346
-3.3052 -42.5398 23.4703
24.3956 -48.8768 51.5795
13.5660 -41.5326 25.3684
24.2643 -57.5822 50.9962
24.9937 -37.8053 46.6259
-14.5895 -58.3200 6.1316
-8.4635 -40.9719 21.7201
27.5748 -47.5218 53.1849
-14.5432 -35.7416 5.6076
19.3755 -54.5571 49.9868
19.6059 -64.6675 47.4169
32.5007 -50.1318 55.5449
7.8795 -58.9324 44.0266
26.1345 -35.7036 28.5484
-2.0622 -62.4305 8.2035
3.9820 -45.7876 12.4427
6.5373 -45.5856 31.8993
-17.3662 -54.7574 3.3510
14.4111 -62.7257 14.7051
-3.0271 -40.4929 20.8248
44.7148 -44.0628 32.5265
38.2616 -42.4486 27.8283
21.5360 -54.2047 50.4673
-6.8890 -60.1273 33.8967
5.5104 -45.4505 12.7658
-8.0793 -57.2049 4.8603
21.7238 -63.6540 48.8213
14.0213 -61.0843 46.7265
40.1405 -32.0362 42.7511
45.7241 -46.6122 43.3913
10.8835 -69.1738 38.0881
0.7004 -64.3102 34.4131
1.0524 -43.2945 23.9427
23.9116 -44.4355 51.3932
46.3881 -46.5887 41.0804
40.8456 -42.0258 30.1795
-9.4013 -48.1882 26.8872
23.0211 -53.5255 51.1135
-20.8603 -43.1879 21.9279
-5.5440 -60.7435 34.2056
23.3132 -64.2409 48.4602
-14.9776 -54.5520 2.5518
1.3178 -53.2267 34.3247
37.4673 -41.4239 51.9818
-13.2634 -44.7726 23.6982
1.0833 -62.8356 36.4331
-5.0798 -59.6008 6.2468
2.7270 -43.0752 24.2671
31.1011 -47.9930 55.4699
25.1891 -43.6383 22.2192
-1.5271 -49.8820 5.5288
33.1619 -34.7425 28.7167
-2.7456 -59.8530 6.3475
32.1110 -47.7944 55.3112
30.7160 -47.4335 23.2012
27.2592 -43.9702 22.0204
-6.0592 -48.8907 5.1373
26.1047 -54.7071 52.9093
4.4870 -62.4466 10.7626
-2.1499 -40.5537 15.7790
32.8091 -46.5983 24.8879
3.3720 -55.0811 35.9773
27.3369 -56.0457 53.2291
28.7846 -32.8132 30.9150
-1.4476 -60.4432 35.5653
34.1158 -46.4944 25.9116
13.4645 -55.1701 13.0773
22.2408 -41.9496 45.9053
6.1675 -52.1504 9.5499
-0.0380 -60.4231 36.9427
13.3334 -45.6811 37.5809
-5.1669 -57.3206 5.0296
28.3285 -64.2197 40.2088
-17.1578 -51.4449 0.2787
17.9084 -38.4826 28.3772
-4.6234 -46.8917 5.5248
29.6153 -53.1976 54.5917
11.5097 -65.3917 13.4834
11.3181 -66.3397 42.0628
7.1882 -62.9555 11.6149
-15.0540 -52.1651 1.1878
-21.0435 -49.7717 23.6482
0.5067 -50.3375 32.9166
-8.4498 -46.3813 25.9039
24.8283 -50.6194 21.1900
1.1033 -60.4280 38.4028
-4.1527 -57.6946 34.5135
23.9296 -42.9560 51.1040
-24.1832 -48.2171 21.7644
30.7620 -53.8181 54.6415
3.5244 -60.8400 40.3486
-13.5895 -51.5878 1.4868
4.0985 -50.3836 7.4128
27.2665 -50.8339 22.0819
-12.9689 -43.2772 22.7625
-2.2402 -57.6828 34.6303
19.5844 -57.5373 50.1592
28.8716 -42.5172 53.2124
-24.2498 -46.5821 21.8079
-23.7353 -56.8099 18.3103
-18.0550 -39.0203 2.7035
17.3642 -45.6694 22.6784
28.6903 -31.1725 34.7696
28.0250 -31.2243 33.8484
-23.7064 -37.3705 11.0805
-5.2523 -55.5480 4.5945
27.1893 -61.8436 48.5407
33.6179 -43.1960 24.9084
5.7000 -50.3634 8.1758
33.3440 -54.4301 54.0198
12.5942 -42.6556 25.2544
27.9251 -62.3197 47.6053
23.6026 -58.6551 50.4132
5.4897 -70.5009 17.3133
40.1866 -57.4747 42.6909
34.5649 -51.6598 28.8682
-17.0688 -59.2565 13.7356
39.6534 -37.6733 49.6038
30.1226 -31.1325 32.9223
-20.9811 -46.7931 1.0434
11.1545 -63.8263 13.0283
-26.9508 -53.6750 14.9314
-15.9995 -39.1490 2.8008
31.7921 -31.1902 46.2385
-20.1180 -36.6622 5.5821
1.7685 -67.6183 31.7016
-20.2085 -44.9380 0.8156
-7.8764 -41.8997 4.5573
-25.8957 -53.3792 13.5009
-26.4915 -54.6384 16.5342
-19.2271 -35.9793 5.5422
-2.3461 -55.3879 5.4980
26.3020 -58.9682 50.7318
-19.1816 -44.7667 0.5129
9.0417 -49.7710 14.8019
31.7432 -51.9076 55.4839
-19.2035 -56.7825 24.7638
26.8691 -48.0424 22.0819
21.7504 -44.6782 22.6653
-18.3630 -45.2448 0.3930
5.2159 -47.6371 11.3763
-11.4935 -59.0029 7.0144
-0.8933 -44.8831 23.5926
-17.4445 -57.1011 25.4208
-23.3965 -52.7095 9.3371
35.6561 -40.8215 26.4709
39.8324 -54.6039 33.1856
33.3225 -51.9027 55.1447
29.4501 -48.6004 22.5290
-11.4112 -39.3580 3.8658
34.0173 -62.4516 41.2390
11.7310 -69.6649 18.3404
39.9933 -44.5542 52.0448
-11.4881 -49.1656 26.6773
18.0311 -50.9636 18.6843
40.2731 -33.7167 32.9506
-27.3684 -53.0881 15.5469
11.9810 -70.1751 19.2954
34.2558 -41.2019 53.2705
-16.9361 -47.0812 22.7607
-17.0389 -45.4168 0.7164
13.6396 -50.3437 17.7620
-4.3065 -64.1318 32.2873
25.3187 -36.4488 45.7728
-20.8057 -54.4881 5.0767
35.1675 -62.1184 40.7496
-4.1311 -50.7098 5.1880
25.4155 -54.2868 21.2369
19.2808 -53.2728 49.3514
-25.5423 -40.4718 11.8550
22.0492 -66.3649 22.4578
31.5159 -37.1956 26.6701
20.6890 -63.8273 21.0855
-3.0849 -53.5045 5.1915
13.5014 -70.5165 19.9380
-17.3286 -45.4822 22.3973
26.3693 -36.8989 48.1197
37.7800 -52.8642 51.9402
-0.6333 -42.7809 15.3217
-19.7363 -52.3236 1.0641
22.3231 -42.5015 23.6054
15.5498 -70.5009 20.6676
-16.9653 -42.6391 1.7993
-13.4833 -58.4078 4.8458
-0.2940 -42.3076 15.4837
28.0368 -56.4154 53.2645
0.1062 -42.8409 23.6729
-16.3508 -54.3267 26.4354
-11.3850 -47.2891 25.8537
5.8008 -64.3070 11.7337
-9.1282 -56.7629 31.9542
6.8134 -54.6474 10.3416
18.9679 -38.1067 28.5569
-3.4958 -50.1120 31.7915
31.0693 -36.1247 51.1717
10.5087 -43.9913 32.0221
-13.4248 -54.0463 28.2105
45.7587 -41.4573 45.7516
33.3998 -47.9092 26.0553
-17.1821 -35.7514 12.2899
-15.7414 -59.0357 25.3390
24.4338 -39.2891 48.5263
-0.7357 -59.4691 36.0209
5.3775 -69.9646 35.4658
-27.2205 -46.7360 13.7668
17.4352 -66.9684 18.5357
-2.3151 -42.8244 9.2883
45.4565 -39.3624 44.6534
26.2893 -66.5661 26.3119
-2.6235 -68.3684 25.0011
-26.2665 -54.1434 14.7503
-12.7337 -43.1151 3.6739
21.2489 -50.3485 48.1325
44.9551 -49.8335 40.8976
32.4538 -59.6215 46.3455
14.8616 -59.0143 47.4728
-0.2688 -57.6909 35.3932
8.7305 -43.9252 20.7892
-0.6855 -43.9690 14.6824
-21.4744 -51.0506 2.6105
33.6849 -44.9097 25.1138
-3.9827 -45.5878 25.9768
25.4880 -68.7761 34.7001
-1.1200 -43.0641 14.6728
28.2458 -65.5251 29.2158
-12.0706 -54.9920 29.8295
30.1843 -51.4525 24.6958
-1.1070 -42.4910 14.8859
-7.3752 -62.0526 12.3688
1.9001 -66.3824 33.6413
-1.7082 -42.0451 14.0263
-26.5965 -49.1614 13.0171
-27.6133 -51.8833 13.7570
24.5161 -65.8352 43.8266
-27.6148 -50.3805 13.7582
-19.3166 -38.4723 3.7209
19.9551 -60.1332 19.3309
13.4653 -41.7672 25.5915
14.1691 -41.6608 25.7095
35.9392 -44.6702 53.6577
-15.3433 -60.8051 24.3539
-27.3832 -49.5058 14.1677
7.4222 -46.4704 13.8797
12.4298 -41.9254 31.3681
-8.1919 -38.4675 13.8966
25.9465 -59.7922 24.5525
15.3360 -41.0432 37.1340
35.4567 -61.1058 34.5763
-26.5416 -46.9325 12.6684
-19.9153 -58.7126 18.7359
43.1542 -49.8773 35.3764
-3.8982 -59.8828 34.8029
-18.7680 -35.7281 11.3179
46.8841 -41.5310 41.2980
19.4054 -68.9611 21.0557
17.0166 -39.6975 38.1342
44.8074 -40.7975 47.6712
-25.2295 -44.6953 10.0588
-21.3519 -54.3668 6.7328
18.1262 -37.0124 31.1616
30.6179 -61.1713 44.4671
44.4711 -48.2977 35.5966
-26.8711 -45.9070 18.6824
-0.1084 -44.8932 13.7582
-23.7149 -54.6160 11.4091
16.6452 -64.7696 16.7468
4.4961 -58.8398 40.9315
-7.2455 -57.7136 34.7263
33.6503 -57.8873 30.1224
11.4157 -58.1525 45.4896
-11.3709 -55.9562 30.4344
-22.9559 -54.7558 24.1041
9.2539 -52.5295 13.0889
-22.3500 -52.0865 6.5522
-20.4867 -53.5660 24.4678
-2.4764 -41.1781 13.9010
-19.2483 -39.9952 3.0269
29.1494 -51.1716 23.2189
27.0393 -34.7613 46.7585
26.9146 -43.9233 52.5992
23.9526 -34.6484 42.8920
-2.2344 -58.7835 5.9656
10.8231 -42.4224 30.1428
22.0811 -40.8259 25.1078
2.1323 -41.0908 20.3114
29.3929 -63.3913 29.1944
-9.8837 -61.6863 28.4465
23.9957 -55.3164 51.4481
35.9589 -50.1222 29.3966
27.9032 -31.0929 36.7451
14.4650 -40.2222 29.8852
15.1305 -64.1922 46.1919
18.4747 -42.1292 41.7831
47.0068 -40.2607 35.2056
-16.4345 -57.4951 8.3235
3.9749 -51.5040 34.7750
46.7245 -39.0891 35.6295
37.8991 -46.6246 30.3389
-11.0216 -59.9415 28.0596
24.6875 -69.8004 33.0701
-3.3827 -67.9504 27.2158
-21.0024 -44.0275 1.6540
17.8254 -38.2764 29.2522
31.3526 -61.2497 43.2588
-0.1850 -49.2158 31.4669
9.8337 -69.1101 38.8762
45.5967 -40.4273 45.6414
-4.8972 -42.4207 6.5865
45.2544 -36.6805 36.0358
45.0122 -46.5441 34.4329
38.0832 -45.1503 29.5013
-8.2149 -57.7085 33.7364
-23.5402 -55.8446 23.4314
31.6101 -54.4004 28.4428
28.4900 -53.1553 23.4069
41.1483 -47.7153 50.8156
21.0811 -48.5014 46.3580
-15.2613 -51.3248 0.7398
10.5498 -44.3489 23.3383
-13.9552 -55.1787 27.8808
6.3807 -42.6273 18.9868
26.4748 -34.1029 30.6730
5.0366 -43.9675 29.8171
29.4645 -65.5800 32.7835
-0.9545 -64.7399 32.7752
-2.4481 -41.5351 11.8713
-26.2447 -41.4753 12.3661
27.9995 -64.0845 27.8682
-7.4750 -39.7765 6.6747
10.9180 -42.3836 23.8984
46.3562 -43.5584 34.7417
41.2755 -51.7644 34.1511
-22.3435 -52.1878 22.8230
39.3725 -35.0138 47.8741
-16.2855 -60.2996 15.4883
-21.0764 -49.0757 0.9504
-15.1695 -58.6116 5.5272
-6.0290 -62.8254 32.3249
-21.0788 -38.1927 7.1315
6.2229 -48.6300 11.5633
45.3064 -42.4558 46.9123
-19.6767 -59.0938 17.2276
47.1547 -43.5511 40.8195
47.0440 -41.5517 35.1620
-21.4760 -39.0425 18.9158
-22.2660 -49.3686 23.1134
-23.5456 -37.5171 13.2663
-27.1437 -46.8843 17.2418
-20.8321 -45.0561 1.3973
-16.7463 -56.7075 5.4777
43.3474 -52.6067 38.8960
25.0026 -69.6032 28.3294
-1.7917 -69.5689 27.1112
-3.6066 -45.8078 6.4417
22.4025 -51.8558 50.6352
35.9559 -47.7736 28.5203
-8.0885 -58.5174 33.7993
-25.9424 -55.8257 16.5713
44.8838 -36.8603 34.3952
-3.2746 -65.7942 15.2616
-8.4634 -57.6970 32.9640
-23.4478 -55.8679 21.9893
39.1633 -53.7017 50.1601
22.5134 -49.0340 49.8556
45.5365 -48.9179 38.7498
-3.6090 -64.2294 10.5947
9.9946 -44.7228 22.6570
4.5193 -68.4640 37.3310
7.2711 -44.3264 18.1220
33.3078 -38.2254 52.4191
-23.5395 -54.4934 21.9063
7.3655 -52.3027 11.4303
21.4591 -34.5431 35.3344
-0.4187 -52.4604 5.3394
38.2302 -44.1739 28.3777
30.1395 -54.8719 27.1794
-26.8888 -51.3220 17.0974
-8.5387 -40.3581 4.9131
43.1053 -34.8735 40.5383
2.2580 -62.7906 10.0462
41.6200 -55.9262 38.8964
-22.8798 -53.0881 22.6220
24.4447 -66.1076 41.4585
-27.3295 -50.0930 16.5133
14.7014 -44.1870 37.9522
40.4386 -54.8315 47.2758
2.2299 -64.1963 36.7012
31.4570 -51.7693 27.5159
-24.8977 -38.9005 13.8826
26.9013 -63.8280 26.4523
11.0322 -50.3048 16.6517
25.2099 -32.5284 40.6038
6.4149 -49.4055 10.8806
16.0520 -58.0010 15.6703
-17.3931 -60.4407 15.5873
46.8166 -41.1912 33.8248
42.1995 -44.0262 50.6730
-18.0010 -60.1285 19.7403
-15.2297 -57.6321 4.5170
-20.1850 -37.0959 6.3790
-15.9837 -56.8074 4.7251
-14.1945 -36.4056 12.2085
35.6062 -31.8099 45.7580
28.3216 -60.4465 27.2657
-13.2609 -60.5244 26.6367
9.2774 -46.6494 19.2211
-27.3768 -48.2583 16.3005
42.7144 -42.6176 50.5178
33.8574 -52.8143 54.7014
31.7279 -53.5970 54.9849
21.4224 -41.1585 44.2538
-1.6131 -69.5838 25.6564
-5.6496 -45.0071 5.3647
46.7336 -40.7962 39.8652
17.7478 -68.7123 19.8476
-20.9351 -57.4509 13.9736
46.0926 -38.7179 33.8745
7.9253 -45.9938 16.3042
0.8712 -46.2525 10.9858
-20.3074 -54.9761 4.4629
6.6642 -60.8658 43.1906
1.3468 -59.5272 38.6087
0.0429 -45.0794 11.1465
16.6230 -55.2935 16.5048
-22.6722 -45.3860 4.4590
41.0734 -46.4965 32.2262
37.0518 -44.9320 27.1557
-8.8737 -58.7091 31.3508
-26.5658 -54.4259 15.9010
38.6413 -56.4179 33.0176
9.6171 -45.3952 21.4913
6.4439 -43.6072 15.4278
23.4701 -38.6469 44.6994
-27.1439 -54.0388 15.5873
21.5937 -35.9957 41.0304
4.9485 -43.3766 16.1995
-23.7140 -54.5913 20.8169
-20.7118 -40.7768 4.4118
3.7249 -44.0457 28.5418
-9.4251 -54.4125 31.7959
28.7001 -37.2742 50.3475
42.8655 -47.4395 48.8878
6.4152 -50.4161 9.3723
20.1560 -46.5244 43.8610
7.7300 -55.9407 42.5472
-5.8319 -64.4813 31.3271
-24.6040 -52.4252 19.1363
7.2069 -50.3662 11.7218
42.0983 -54.5670 37.0999
40.8760 -34.1230 44.9004
5.9919 -49.4745 9.4487
35.0665 -31.7717 34.0105
38.4778 -32.1143 33.8042
45.9361 -41.5707 32.5389
41.1000 -48.9916 33.3190
-24.1307 -39.6011 17.5069
-24.8395 -39.2124 11.0143
-20.2581 -38.2579 5.3020
6.5481 -62.8847 42.5667
-8.7316 -39.4405 18.7206
-23.2334 -51.1446 21.8435
21.1183 -42.9512 44.5221
16.9650 -41.1456 39.4701
45.8720 -40.1927 32.5215
13.8609 -41.0715 32.9811
18.1447 -40.8246 25.8280
-17.4728 -35.4907 5.5084
22.7488 -42.7777 49.3260
27.8513 -30.2602 39.3659
46.9985 -40.1974 37.1920
43.2999 -51.8549 37.1604
24.9116 -69.9260 31.5597
43.2139 -48.9401 47.4249
15.1676 -55.2064 14.3182
-20.9725 -54.0388 3.6981
3.7620 -68.2972 34.4416
42.7988 -39.6998 49.3443
-1.2905 -67.1235 30.8746
-6.4886 -46.7411 27.1812
45.3766 -36.8611 38.9903
3.0861 -66.3399 36.3449
-1.1237 -43.0641 15.5873
22.0276 -34.7691 32.5942
45.9666 -45.6423 35.4724
-23.8087 -53.1111 20.6314
-4.0094 -41.0486 9.2157
35.2101 -49.0076 53.9648
42.6815 -34.3126 37.3724
21.9431 -34.9413 37.5132
35.6730 -42.7506 25.8455
29.9487 -53.7812 26.3739
32.0040 -61.3497 30.8670
42.0927 -54.6014 42.3459
6.1381 -66.8703 40.5194
25.6752 -33.8584 44.4479
44.0674 -43.5195 48.9146
-26.6581 -49.4335 17.9535
29.3874 -45.9531 54.4028
-27.6411 -50.3668 15.0991
22.7255 -44.7237 50.1352
40.2071 -32.1852 36.8682
23.6928 -33.5171 39.2402
-11.8858 -45.1948 3.7118
46.4286 -43.2305 37.3480
43.9861 -50.8022 42.9390
-8.7510 -37.6604 8.4452
-27.4146 -47.7666 14.7268
1.8815 -47.4684 9.9156
46.8064 -41.8396 38.5202
5.2191 -63.3788 41.2297
39.7159 -48.2982 32.0345
31.0573 -49.3249 24.0128
-1.9286 -47.0377 6.8972
-6.4040 -42.4853 24.5171
12.7587 -53.4511 13.8924
-3.8361 -64.7708 11.8369
23.7853 -69.8461 33.9727
-18.3118 -35.9202 8.2447
38.1663 -59.4738 41.3814
-3.8070 -40.3427 13.7504
24.0585 -67.4230 38.2363
10.8736 -46.5686 21.8463
5.9357 -68.8630 38.8230
10.0957 -42.1033 25.3874
-21.1444 -57.9101 16.5051
5.2838 -60.1850 42.1611
-17.9313 -37.1971 4.3047
-7.7701 -60.2130 32.1592
23.5385 -36.0594 43.6726
39.1141 -55.4157 48.4473
-6.2942 -41.1734 22.6225
-4.8277 -66.6993 21.1566
20.7993 -65.9297 46.2362
-17.3743 -56.3282 4.6126
-21.5816 -57.0729 22.0844
14.4310 -66.1954 16.0440
-2.4230 -65.3037 11.8096
23.1412 -68.4260 36.9847
38.4138 -31.2376 43.9387
37.6963 -59.1833 42.8763
-22.7259 -56.7260 21.9713
8.9987 -46.7289 35.2124
11.1636 -47.8583 19.7880
38.5007 -32.1433 44.9594
6.7499 -69.9838 36.7375
26.4209 -68.3320 28.0507
10.9711 -43.2349 23.5885
-5.4778 -42.0274 23.7616
-21.8629 -41.0231 20.7996
13.2225 -54.1368 13.4225
26.5671 -31.7132 34.7476
-1.7368 -66.3975 14.8051
12.0802 -46.8203 21.6555
7.3188 -70.1275 38.4513
10.9084 -42.3204 24.6972
41.5738 -54.4518 35.6901
-15.7779 -56.0866 3.6919
-5.2847 -43.2181 24.9074
-6.3655 -65.5617 24.1888
21.0042 -52.6094 49.8746
14.2343 -53.2705 15.1734
-6.6832 -61.7879 32.3861
28.6317 -37.5420 26.2918
-18.7921 -58.5361 14.0582
-18.5706 -37.2475 16.6447
7.3395 -54.4475 40.1099
7.3190 -69.5841 39.0291
40.2597 -31.7922 40.2806
39.3289 -31.9555 43.9422
37.5642 -57.4367 46.4182
-19.7793 -58.5859 15.5619
26.7184 -68.5874 29.9549
-16.2030 -53.1187 1.6784
-0.8043 -63.7156 8.9365
40.1462 -57.7557 40.7763
-5.6064 -65.4997 30.2011
26.3695 -39.2247 24.1819
42.4060 -34.9031 34.1787
-20.3833 -57.8364 19.7975
-20.2002 -56.7892 24.7054
40.2970 -31.7952 41.5178
-4.3635 -65.3200 16.3180
8.0279 -69.7468 38.0172
11.5978 -42.9707 24.4866
-16.3413 -35.9607 10.1703
-21.7702 -56.2920 24.1176
-21.3668 -54.8706 24.7821
23.6557 -67.0541 39.5352
-8.0630 -52.7461 31.9336
11.4369 -41.9561 26.4736
0.3478 -47.3475 7.8915
14.0566 -69.2231 33.7453
-18.3032 -59.5912 15.5832
8.8694 -54.2822 42.0023
8.1949 -69.5734 39.1783
22.8370 -41.7191 48.2182
-0.2378 -45.6707 9.2363
41.2826 -32.7365 41.4877
-5.5056 -50.9756 31.7315
-17.3743 -35.3446 12.8437
7.9204 -51.2766 37.2789
0.8739 -52.5304 5.7479
37.5975 -49.9893 52.7560
-15.2931 -57.7658 5.7763
-20.3001 -50.5987 24.0523
-20.0440 -57.6043 23.6464
-6.1413 -59.4427 34.7932
12.9162 -43.1707 25.0570
11.5297 -41.8604 28.8206
-3.0059 -45.1425 24.8715
-0.6307 -65.0278 10.0520
26.5064 -31.4363 36.0559
-4.5283 -47.9790 28.9033
13.2935 -68.2540 17.3265
29.6779 -38.4744 25.5691
-17.4528 -59.6056 14.4061
9.1327 -69.1519 39.3502
12.8915 -41.8007 26.1404
-2.4230 -69.0478 21.1234
26.5779 -68.7416 31.7190
14.7962 -54.0877 14.6490
-14.1298 -58.2922 7.6980
-0.2863 -43.3204 15.2543
-0.9123 -43.5469 15.5873
28.7766 -57.7415 26.2294
29.0065 -65.4965 30.6885
-15.0994 -48.7889 0.8927
-14.1913 -59.0380 5.5128
-17.4038 -60.2148 16.3408
-13.4993 -44.0668 3.3289
-13.1693 -54.1432 2.2882
-0.9442 -69.9172 23.9780
0.4497 -63.7717 9.3681
-18.9505 -57.4332 23.9271
-17.1180 -35.7886 13.7133
11.6250 -51.0121 40.2541
10.0625 -69.5045 38.4513
44.4860 -38.5313 31.9779
-6.2236 -57.6459 34.8756
13.7856 -43.1964 24.8631
-18.2328 -60.0190 16.7868
-15.4003 -37.9325 17.8330
44.4467 -37.3865 32.9863
14.0980 -41.3097 26.5797
24.4062 -65.2941 46.1765
-17.3743 -60.9239 18.3310
27.9264 -67.1379 31.5471
0.9123 -45.4294 11.8552
26.7313 -31.2929 37.4263
-17.9700 -60.5708 18.4622
7.8741 -57.7345 43.8500
18.2424 -69.3479 28.9290
13.1426 -41.1246 30.2597
-18.3602 -58.5707 22.4004
0.0386 -44.9923 12.5758
27.4391 -30.6795 37.5368
15.6851 -69.9275 20.0125
-15.6880 -36.0947 12.7808
9.5553 -67.5515 41.1061
14.2002 -70.2817 24.1848
13.4410 -41.1335 28.6615
-15.2897 -40.2386 20.9308
27.4719 -30.4685 39.9186
-1.6200 -67.7246 17.0026
-16.2897 -58.5262 11.5589
-15.5452 -36.0049 13.7582
-3.7154 -58.6572 34.7848
9.7465 -66.8128 41.8488
-11.6164 -38.4365 4.2765
-1.5579 -46.5286 26.2786
26.1138 -38.5388 49.7466
0.9120 -43.7037 15.0713
-0.8040 -69.2096 18.2894
-15.3843 -36.4400 14.5685
45.6498 -39.0691 32.7616
2.1371 -48.4436 8.1984
-0.2839 -41.5600 15.9997
25.5749 -65.4682 40.8702
15.6194 -70.2937 21.1411
45.7179 -47.3302 36.4620
-11.9449 -58.9311 5.5475
-11.9189 -36.4603 6.0584
-16.3318 -60.4800 22.5188
1.9035 -66.1974 12.6757
28.4295 -30.7434 38.1733
12.2846 -44.8964 35.8110
28.3521 -30.2811 41.9326
11.8916 -69.0989 37.5368
45.8016 -44.4251 33.5555
29.1627 -65.6332 34.3595
-12.9039 -35.7520 6.4746
1.4776 -44.6033 14.2081
30.8324 -40.3495 24.4256
17.3755 -69.5978 21.1216
41.8215 -35.8410 46.6396
2.5231 -41.1840 19.3050
-11.8935 -43.9820 3.6865
-16.5087 -60.9863 20.2113
-2.0437 -69.0814 28.3212
1.1674 -70.5025 18.2985
31.2687 -58.3406 28.7704
25.3045 -64.3106 47.4645
9.7626 -54.8761 43.3247
-0.9123 -70.2825 25.6475
25.3039 -59.1437 50.4134
24.2146 -41.0983 50.2043
2.3432 -45.7219 12.2359
16.1408 -49.8892 18.8349
0.8384 -67.1699 14.7050
32.6342 -49.5183 26.4325
-14.3429 -60.2612 14.6229
2.1671 -69.0302 16.6133
12.6465 -68.3255 37.8211
15.5870 -40.4552 27.6972
-0.4495 -70.3876 22.8200
14.4126 -40.1010 31.7127
45.6377 -38.5364 41.2404
-12.8531 -37.3613 14.9355
-1.7837 -61.8167 34.9009
15.2794 -41.7602 25.9009
-0.7225 -69.5860 28.4909
27.8993 -63.4588 42.0196
4.2315 -49.1742 8.2665
0.4645 -46.7540 27.9683
27.2728 -39.8204 51.4173
28.2881 -65.4925 36.7595
-3.1945 -51.8778 33.1823
26.2775 -64.6297 44.7854
16.3868 -40.6930 26.6736
0.0101 -70.1176 26.5473
-11.9308 -35.9066 9.0329
14.5638 -68.6033 36.7663
30.7709 -31.7542 31.8288
46.7084 -38.9280 37.9004
-0.6129 -69.8426 27.0063
27.2080 -57.8836 52.0326
-15.5452 -61.0059 23.8184
-12.2639 -36.3299 10.2810
17.5223 -47.4005 21.2454
1.2195 -41.3854 17.2293
29.7781 -62.3939 42.0244
15.1861 -47.4714 40.1143
18.0634 -69.6278 25.2719
-9.5474 -46.0723 4.5404
15.6760 -38.7841 30.8843
46.6133 -45.9016 38.9327
30.6560 -31.0657 36.9362
2.8955 -67.2898 14.1098
3.4023 -70.5146 17.5967
-15.0159 -60.7392 18.3070
12.7060 -65.5738 43.0633
31.7780 -31.4060 33.6302
-10.2120 -38.7165 4.9117
-15.6409 -60.9125 20.0738
-11.9515 -35.7573 7.9156
15.5310 -39.1673 34.4591
35.0695 -38.9833 26.9720
29.4718 -30.9318 44.3304
34.1350 -32.9268 30.8756
5.2696 -49.0785 9.6136
-15.2069 -60.9457 22.1647
3.2395 -65.4697 12.3467
31.8401 -30.8557 44.3500
14.1182 -50.9629 41.6684
17.0903 -39.3041 28.1404
2.0982 -42.4206 23.7033
13.2466 -54.6920 45.1031
11.8033 -64.3917 43.9699
-10.0899 -59.0479 6.2988
0.9169 -70.3197 27.4766
2.8239 -42.8562 16.2425
27.9245 -32.3182 45.3953
11.5046 -56.3752 45.0282
-14.6307 -61.4067 24.7329
14.6259 -69.0724 35.2419
19.2319 -69.7910 21.8989
28.6954 -62.4852 45.9793
28.7682 -33.5032 47.0721
-13.4644 -61.3693 23.2876
-13.8299 -61.4292 25.6614
30.6346 -30.8611 44.4370
-11.9755 -60.7591 14.2716
0.4882 -70.1491 25.7168
-10.3350 -36.7565 10.3476
-16.0122 -52.7248 26.1324
18.6492 -69.5895 22.1960
6.3175 -45.2358 13.3503
31.1242 -62.6294 41.2802
30.5266 -32.3808 46.9003
19.3731 -36.0030 33.6383
17.9503 -38.2705 37.3812
7.0040 -70.8385 20.5360
-27.4308 -53.5541 14.6747
32.9162 -31.3575 32.9671
-9.5856 -37.3291 11.6560
14.0714 -66.1532 42.4544
6.0271 -66.5548 12.9981
4.9079 -69.4193 16.1853
35.3018 -61.9994 35.8705
-9.0656 -59.4601 6.4578
1.9725 -44.8891 26.9023
-11.5370 -61.7764 21.9032
-11.7173 -53.2629 29.0099
5.9381 -70.4225 17.6375
5.3694 -42.7260 17.5253
15.9086 -66.6125 41.8219
-25.7283 -50.9993 12.3497
3.7645 -43.1679 25.8136
4.1073 -69.8813 27.5840
16.1828 -51.7818 44.0952
-26.8737 -53.3543 14.1830
34.7556 -31.6593 32.9640
17.2030 -62.5389 47.6048
31.8348 -63.8520 34.7288
-7.3511 -59.9283 7.0010
3.5000 -69.3859 29.2915
1.7891 -46.9515 29.8284
33.0968 -62.8406 40.0943
-26.8410 -43.9064 15.4276
18.8905 -36.6606 31.5525
33.8461 -63.2319 37.5332
-12.2999 -61.3645 26.5037
20.7589 -69.7710 23.3799
-10.0120 -61.6831 15.1484
0.7459 -58.4944 37.1361
16.8954 -65.9053 45.3428
-26.4370 -42.3497 17.5117
30.8680 -58.6646 51.0165
-11.6952 -45.7425 24.6251
32.0629 -63.9047 36.6605
20.1135 -35.6540 35.2226
-23.8687 -43.4752 7.5095
1.1842 -68.1291 30.5182
6.4577 -42.9925 16.4651
33.0397 -30.7333 45.7830
20.5763 -69.7928 25.2197
3.3825 -42.4092 24.1931
16.6136 -65.2144 46.1660
20.4780 -69.1038 34.8243
22.6137 -46.3727 22.1646
2.4888 -41.5665 22.2953
34.9312 -32.1794 32.1524
8.2570 -52.1177 12.6164
-12.7654 -61.5584 25.1363
-9.1599 -60.5145 9.6811
-23.6695 -41.5433 8.2880
-8.3748 -62.8186 17.3655
-10.0749 -39.3021 19.4563
-24.4752 -39.9923 10.3263
2.7076 -66.8888 34.3652
3.4424 -62.7406 38.7577
37.8551 -32.8592 32.0757
-10.0546 -39.8779 20.1780
20.2986 -35.8504 31.7770
5.5532 -43.6701 29.0037
-22.5391 -48.1715 4.3966
36.5690 -32.5949 32.4227
31.6995 -34.5425 50.1974
-7.4824 -38.1627 10.9834
18.6286 -38.9604 40.4384
-21.3997 -53.1026 4.4790
-11.5282 -61.9329 24.7239
3.3802 -67.9345 33.0185
-12.2290 -57.9102 28.1790
-6.4970 -39.4870 16.7199
36.3868 -34.9254 29.5839
21.9517 -70.2370 26.5621
-25.3307 -55.6823 16.0650
20.9227 -35.7736 31.4182
-21.0027 -51.8971 1.3261
-10.6202 -62.4277 23.4700
34.2947 -57.7446 48.7242
-21.7889 -43.2799 3.8190
-21.2671 -53.1604 2.7666
9.0573 -51.2499 13.8178
-10.9434 -61.7631 26.8971
22.5385 -68.1824 23.6764
30.2590 -60.4448 48.5693
-8.5398 -40.4748 21.1931
-24.4811 -56.2579 17.0348
31.2988 -40.7664 53.2800
34.8491 -31.3580 44.3578
-4.1028 -40.1122 11.9467
22.5642 -67.4055 39.2146
19.6374 -37.7101 39.9468
33.6318 -33.3201 48.9507
22.1233 -70.0565 28.0593
-25.6400 -42.2763 18.8046
36.1982 -31.7682 37.1808
20.8356 -69.5265 30.9672
-21.0326 -54.6830 4.6126
7.8461 -69.7584 16.3839
20.6861 -36.3646 37.2511
4.4990 -68.7949 32.0129
8.0002 -44.9268 19.1920
35.6610 -59.6207 43.8397
21.9220 -38.7349 27.7695
21.9081 -69.6667 24.8477
36.9391 -32.1389 34.1873
-20.4029 -41.9851 2.6238
-9.6887 -63.1947 22.2174
-10.0297 -62.4049 27.2209
-6.1384 -39.1773 13.3169
4.3877 -68.9114 33.9471
24.4804 -39.7475 23.9721
18.9503 -39.5373 41.3802
22.8663 -70.2015 27.4766
18.2181 -66.2510 45.0902
21.9517 -35.7691 31.1348
35.1352 -62.5097 37.9287
-19.5815 -50.2691 -0.0303
8.9083 -43.0157 29.7578
10.0222 -50.6828 15.4178
38.1513 -31.6634 42.1570
5.1852 -69.1183 31.1892
-22.0167 -36.1042 11.0304
39.2058 -42.9763 28.8399
18.0069 -45.1922 41.6768
23.0913 -70.1082 28.9502
38.5812 -58.4038 36.2226
9.0794 -70.1470 17.3169
23.8510 -37.6284 26.5878
-7.5520 -63.3789 19.3470
-3.9550 -48.8298 5.3812
-9.2893 -42.3607 22.4800
-8.3673 -64.1037 24.0317
-23.7256 -55.8602 19.6486
21.0863 -34.8406 33.6838
-19.3105 -55.8175 5.3592
5.5187 -69.8904 33.8713
23.3902 -36.4525 29.2424
8.1067 -42.1201 25.4193
36.3572 -34.2514 48.0335
23.5475 -69.9674 30.5304
-24.7054 -43.9363 20.7599
22.0292 -69.6963 33.5149
-19.6508 -36.4733 6.5396
-21.2978 -36.3623 10.2949
24.1541 -38.4786 25.1472
12.4025 -70.5670 21.1411
23.7808 -70.1956 28.3912
-6.0403 -61.9433 10.7071
-20.1867 -36.6811 8.2087
-4.8877 -61.4059 8.4945
22.9944 -69.9654 33.0295
24.7726 -33.2950 33.6284
35.6836 -62.0368 39.4872
6.2209 -69.4329 33.2055
-7.1561 -63.1633 14.8441
5.5267 -69.8266 37.0182
25.0206 -68.1896 25.9863
-23.1334 -40.8306 19.9170
22.9759 -33.8522 34.3225
22.8663 -70.1100 33.8785
7.7484 -44.0032 30.9881
10.7697 -68.0933 15.1163
-20.8640 -36.4208 13.2008
41.9128 -35.9401 32.3808
24.8254 -35.4573 29.5300
18.1494 -66.3268 44.0191
19.3167 -50.0821 45.3253
-7.2581 -42.9684 24.5269
-22.4980 -56.8577 19.6192
10.7771 -52.2113 14.5907
-4.4580 -62.2880 9.4923
10.0389 -47.1154 20.1318
39.4107 -31.8207 35.3469
23.4652 -70.0114 32.0835
-23.3309 -55.8833 21.0451
12.1527 -66.4361 14.4094
23.1120 -33.3265 36.1899
22.8691 -69.3228 35.4444
7.7378 -69.2996 30.3687
37.5189 -31.5258 42.9818
-4.5637 -39.8303 15.2682
-18.6669 -35.5759 12.8179
10.0330 -46.1194 22.2035
-21.4167 -57.8693 18.1298
39.3284 -31.5671 36.6222
23.7808 -70.2719 32.9640
39.2833 -31.5657 40.5902
-9.0062 -63.4005 28.1547
37.5105 -31.5589 43.9334
-21.0212 -35.8162 11.6135
-6.6306 -40.0254 19.7282
5.0436 -66.3203 39.8307
24.5401 -69.8451 29.9097
8.9008 -42.3736 27.7770
-7.2666 -64.4859 21.7647
39.2081 -31.8782 37.7125
-18.1479 -56.0138 4.8327
-22.8653 -56.2410 22.7936
36.6970 -31.3629 44.8756
6.4042 -70.2067 37.5368
42.3692 -43.1470 31.3393