0.5305 -48.0673 40.6315
-10.6714 -48.9826 44.3582
-9.4724 -47.6767 43.4277
32.8538 -33.9281 25.5029
-5.7815 -52.6081 46.0338
21.6090 -64.8222 29.5756
18.2748 -53.6165 34.7862
6.6284 -59.5179 34.1019
4.0158 -60.8932 40.4476
6.9141 -58.2157 34.3273
6.5689 -55.6035 34.3327
27.2794 -57.8244 33.6954
19.6375 -67.7256 27.9714
23.0484 -48.0050 35.8981
2.0220 -62.4138 41.7200
1.8923 -63.8129 41.0873
18.4314 -61.2150 32.8175
12.8027 -59.5975 33.8865
12.8900 -57.2683 34.7533
1.4546 -50.4623 40.4785
23.3517 -59.6961 33.7017
-3.9408 -57.6891 46.4432
-3.6459 -55.5346 46.1488
27.0569 -60.3350 32.3437
12.8677 -54.7785 35.0219
-6.8983 -50.6342 45.6218
-9.6881 -51.0279 45.6164
14.9614 -68.2014 28.0709
-14.2576 -70.5104 33.3927
7.3798 -67.0284 26.7171
6.6153 -66.0779 27.0245
2.9804 -51.2061 38.4622
22.0655 -44.6344 36.6265
3.1032 -40.0476 27.6858
17.5997 -47.4939 36.5556
16.5204 -45.8128 36.7645
3.2179 -38.5574 27.2287
4.3112 -40.5254 29.4718
27.2477 -35.8092 29.2131
28.6361 -38.6115 30.3640
6.0919 -41.1567 32.3126
-11.8126 -46.0052 42.5680
7.0758 -43.0995 33.7325
8.5375 -42.6936 34.9518
1.2370 -43.3715 24.1535
3.2773 -43.2164 26.2583
16.1698 -34.2345 30.3285
4.0880 -44.1896 27.2577
4.3513 -43.3169 27.6105
21.5659 -36.2817 32.1540
20.5855 -33.0712 29.4321
31.7696 -30.4791 20.4660
29.0978 -29.7355 21.0187
-10.9557 -43.1560 39.0440
26.2078 -34.1285 28.0871
-8.3000 -44.0060 39.6069
6.1980 -46.8163 32.2507
5.6757 -44.4679 30.2845
6.5160 -45.1770 32.2956
-5.1044 -44.1232 39.6672
0.4576 -46.4342 38.7450
1.3461 -44.1415 24.2789
3.5617 -44.9524 27.1846
4.8901 -45.1136 29.0558
-11.4928 -42.7678 37.9576
1.0913 -44.3474 24.7660
4.6591 -46.3398 30.8390
25.7334 -62.5499 31.1029
-0.2073 -63.4022 42.8914
0.9061 -59.3753 42.9326
-2.8877 -56.3974 45.7553
22.2160 -71.2860 21.9235
22.8772 -34.2918 30.0826
24.1708 -54.7449 34.2454
18.9218 -34.8748 30.9938
-6.6760 -49.3537 44.7761
20.8574 -58.5293 33.5711
21.5913 -38.1857 34.4459
20.9823 -70.1805 21.8007
19.1474 -70.2328 22.5323
1.5756 -68.8349 23.7874
1.6458 -69.2897 24.5663
17.8237 -69.7407 21.8341
9.6199 -69.3967 17.9393
11.2854 -68.9851 13.4755
12.9747 -69.1733 15.2312
12.3056 -68.0541 12.8291
10.0347 -68.1036 13.2885
18.0705 -70.3113 22.5584
2.1799 -68.9638 22.9835
30.9096 -33.1944 26.0792
27.5635 -45.5432 34.6212
21.4537 -71.3595 22.4367
-3.1883 -52.9155 45.9956
21.5971 -71.5729 21.8687
-16.1606 -68.9348 35.4803
18.3232 -41.0634 35.7656
25.2249 -31.0845 25.0252
2.8900 -68.8530 22.2524
5.4776 -46.0760 30.6751
2.5733 -45.3458 28.6685
15.5190 -37.9055 34.4938
-1.0426 -44.9932 39.3192
-13.9903 -69.3320 31.5820
-12.1089 -44.3043 40.9045
17.2080 -36.0068 32.7397
4.6806 -63.6870 36.4293
5.5149 -54.0964 35.3792
28.0415 -58.3195 33.1418
27.7612 -54.8541 33.8030
28.8233 -49.7677 34.0310
5.0243 -53.9259 36.3124
-9.1133 -68.6127 39.4542
27.8518 -52.4095 34.2296
-11.7068 -59.6332 47.3917
1.8861 -53.9405 41.9923
22.7382 -61.6919 32.6157
3.6904 -54.1903 40.5545
0.6217 -51.7794 42.5179
25.5270 -60.5177 32.8877
-8.4016 -58.2184 47.5038
-4.6742 -66.9495 39.6546
-10.3641 -69.6708 38.2551
5.8685 -64.3927 29.2388
3.1888 -64.2048 38.2056
5.5617 -61.5110 36.2804
31.2595 -35.8056 27.8062
25.2318 -45.4819 35.7627
22.7979 -41.7102 35.8287
26.4007 -38.3330 32.0794
-2.0087 -45.4419 40.9553
27.2734 -43.5476 34.2541
-0.5323 -46.6494 40.9916
7.7691 -41.3148 33.8849
10.4342 -36.9300 32.2481
14.2600 -33.9536 29.4288
19.5469 -29.8299 25.0339
2.1131 -48.6606 37.3637
29.7049 -41.4437 31.1999
-7.1552 -66.0464 41.1069
1.0374 -46.4615 36.7569
-11.8079 -57.4748 47.7215
17.1205 -31.4613 27.4370
7.0860 -64.5966 29.2205
12.0898 -69.3429 26.0182
23.2824 -71.2459 20.2911
16.0191 -69.6262 24.3647
-2.5343 -51.0244 45.4730
-3.6769 -44.1943 39.3038
16.0354 -69.6463 23.2179
29.8465 -52.0635 33.6571
3.8327 -69.4062 23.0007
2.1985 -45.9566 32.2064
-1.5734 -45.2866 25.9647
-6.4816 -44.8736 28.5177
0.3617 -45.3661 29.4838
-2.9080 -45.3992 29.5469
5.1582 -55.4691 38.0732
4.6388 -58.2321 39.7594
22.8375 -71.4854 20.7622
13.6138 -69.5844 26.3264
20.3308 -70.7489 22.4181
22.5849 -67.8363 26.4720
8.2471 -58.5372 33.8976
6.9349 -53.2570 34.2372
9.1393 -56.4091 34.4384
26.6452 -68.0809 24.8540
26.3086 -64.7498 27.8907
0.1077 -54.2577 43.2840
3.4828 -57.2821 41.0113
5.4572 -63.2230 34.0210
26.7297 -41.2666 33.6906
18.5838 -38.2881 34.5396
11.3874 -40.3527 34.6093
8.7625 -45.4136 35.3292
30.8644 -40.4932 30.1450
33.9585 -35.6373 26.0389
-12.3154 -43.1562 38.9074
0.3175 -45.5432 37.2154
-0.7425 -44.7767 37.6822
5.7627 -57.3030 35.8306
8.8977 -57.6839 34.1443
17.4493 -71.1268 23.3245
22.0594 -69.8565 20.7271
0.4490 -69.4535 26.8737
4.7006 -69.3399 26.8811
-7.4091 -69.2662 37.5619
20.4324 -71.6796 22.5609
4.1722 -53.6693 39.2278
-4.8901 -46.0063 25.3054
19.2058 -71.6368 23.0208
5.9814 -60.0368 35.0558
-2.0960 -44.2963 38.7933
17.6644 -70.1061 24.9529
15.2108 -49.6512 35.9512
18.1212 -50.6603 35.3504
-5.6988 -59.2895 46.5980
-8.4386 -56.9806 47.5439
19.7528 -70.7111 24.2820
22.7876 -39.5005 34.9911
30.9638 -32.0064 24.5366
-13.2253 -43.1344 35.2103
23.9380 -71.4808 19.9227
16.4792 -70.2114 23.6868
22.1973 -71.2386 21.3552
-0.0317 -44.1773 22.9109
0.0113 -42.4300 22.7884
16.6837 -69.5400 25.8936
15.2679 -69.3818 26.2406
-0.1737 -69.2488 24.5815
6.7298 -67.1341 26.0922
0.6987 -68.2127 23.9029
8.5885 -67.4137 12.2726
1.5673 -67.9452 23.2997
14.6449 -69.4447 16.1240
21.9104 -30.6067 25.5586
21.3885 -71.3979 21.9132
-6.6101 -68.8791 37.9138
6.1452 -66.5217 26.9058
6.9168 -68.9619 25.0618
5.6018 -68.8577 26.8846
5.6918 -67.6466 27.7143
6.1109 -65.4478 27.6521
15.6256 -67.9428 11.1415
5.6355 -65.6228 28.3844
11.6632 -67.3773 11.1914
17.2943 -69.5483 16.3304
4.5822 -36.6414 25.7408
9.1972 -68.8621 15.7023
5.6858 -69.3614 26.1509
10.5674 -69.2338 14.2916
3.3036 -69.4246 30.1135
-14.8180 -70.3386 30.1077
-14.2480 -70.4362 32.7365
7.7367 -36.4777 30.0240
14.4939 -40.7293 35.2963
-13.7312 -44.9053 40.8507
6.6526 -37.7789 30.7146
11.0360 -35.4113 30.6873
-14.6725 -70.4136 31.7058
11.8252 -33.8078 27.2977
5.2095 -41.6605 31.0446
-13.1667 -45.3643 41.7772
-8.4469 -45.0614 40.9207
8.3801 -35.3839 28.0820
-13.7185 -70.7842 33.8141
15.2007 -43.3843 35.9593
-11.4014 -42.9380 36.5886
-9.2567 -43.1048 38.1313
-11.1994 -67.4116 40.9925
-11.4395 -50.9051 45.0145
9.2777 -67.2414 27.4031
12.7857 -36.1108 32.3457
4.6849 -37.2010 27.2599
-12.6392 -47.2949 43.3995
7.7770 -46.5479 34.4574
10.0133 -38.8314 33.4972
29.1383 -31.2953 24.5386
18.1940 -71.5701 23.1033
6.0112 -51.0263 33.6606
17.5330 -66.0777 29.6226
13.8076 -30.3900 24.8831
5.9045 -53.4216 34.8669
4.9745 -49.9191 33.5326
4.0619 -52.1010 36.2345
3.7863 -49.7918 34.6564
15.2129 -31.7988 27.4623
4.6563 -51.3807 34.6438
2.0153 -47.3210 35.0181
1.1053 -46.3257 35.8799
0.0466 -45.7293 35.4672
-4.5546 -44.5307 34.7546
30.4689 -48.2098 32.8199
9.2444 -53.0958 34.5426
7.4683 -51.6635 33.9712
33.8558 -50.0994 31.1828
32.1213 -51.4465 32.4618
34.9381 -34.8340 23.3121
18.1648 -63.0447 31.8882
-7.9740 -44.5261 27.4611
-8.0841 -69.3941 36.2095
30.3046 -28.7472 18.2373
-9.9514 -43.5183 30.5828
-10.9537 -70.5534 36.2986
-9.2081 -69.8314 37.4311
10.2698 -51.2926 35.5481
-7.7148 -53.4882 46.6175
-1.6336 -65.3295 41.6929
-3.4673 -62.9030 43.9539
-8.8362 -62.1832 44.8570
-0.9587 -50.4644 44.4286
0.7991 -65.3397 40.4062
-2.2221 -53.6359 45.6134
30.6575 -60.5927 28.8316
31.9372 -57.3988 29.6540
34.6966 -52.7601 29.8053
29.5608 -45.5952 32.8272
33.5397 -45.4073 29.8492
-3.6682 -60.7401 45.1806
-1.7853 -58.4403 44.9904
4.9243 -67.9840 29.0601
5.3303 -65.0883 29.4051
-13.3968 -69.6015 27.4921
-12.4602 -70.4369 26.4085
-10.8731 -54.8873 47.1937
16.2514 -56.9537 34.0944
-1.3053 -47.9679 42.5968
-2.3811 -49.5403 44.4268
31.2510 -63.6557 25.2268
35.4301 -56.6191 26.7880
33.6746 -61.6164 24.6919
36.6426 -48.4756 28.1374
-4.1022 -47.1149 42.4000
28.7460 -66.1731 25.3229
27.1842 -68.9967 23.4187
36.7334 -50.8946 26.7992
36.0054 -55.5952 26.3077
-8.0246 -69.2663 24.0346
8.7043 -68.5861 25.5740
9.7207 -69.4192 23.7259
5.9716 -67.1990 14.9458
6.4220 -68.8173 26.0113
4.6924 -69.0993 27.9331
14.5859 -69.5769 15.2326
5.1571 -68.1806 28.1749
7.1923 -68.1705 25.7923
-12.1156 -69.4043 27.0461
7.4712 -68.6081 17.1156
-13.6838 -69.2723 28.7421
7.5870 -69.1547 17.7889
-13.1458 -69.3586 33.0948
-11.6090 -60.4944 46.9411
-14.5870 -60.5474 46.5621
11.1126 -54.2947 34.9295
4.8717 -48.6758 32.6681
3.2719 -48.3241 33.8469
6.6127 -48.7119 33.3880
5.6940 -49.3220 33.1214
8.4462 -48.8730 35.1184
4.2623 -48.1345 32.3932
4.7290 -47.3938 31.5991
7.5103 -50.3652 34.0809
2.8504 -46.5744 33.4142
-10.5931 -43.4243 28.5014
-8.8901 -44.1023 26.8142
33.1750 -52.8231 31.5079
31.0659 -55.7564 31.7962
33.5825 -37.7475 27.4592
32.6757 -41.3222 29.4530
15.7564 -62.3297 32.8210
-13.9146 -70.2329 27.8516
-14.2814 -70.1514 26.9860
29.4879 -67.7742 22.4185
37.1444 -51.1696 24.1507
30.1630 -66.3971 23.7578
33.2987 -63.6682 22.4497
35.9782 -59.2001 23.4809
37.4323 -48.3086 26.5415
36.7398 -54.7388 23.3027
37.0799 -57.1631 20.6273
4.1070 -69.1137 29.5790
-14.3794 -70.1834 28.8384
-14.3307 -70.3552 28.5771
5.6820 -67.3982 17.4579
13.0430 -47.9466 36.0862
12.3687 -42.9932 35.2590
11.4606 -46.0919 35.8320
5.7115 -48.1805 32.5209
15.5070 -64.6376 31.4453
12.7437 -63.1175 32.6216
35.7719 -40.9793 27.2031
35.9504 -38.7541 26.0541
12.9705 -66.7141 29.7150
15.5568 -30.0436 24.9771
17.6744 -29.7326 24.9046
13.0745 -28.2723 9.0065
15.0217 -28.0357 8.2371
17.3093 -28.3356 6.7232
19.9645 -27.9119 6.2698
7.8532 -67.9811 26.0346
23.2990 -25.2828 12.5936
21.8501 -25.8648 8.8562
15.8637 -25.6810 11.9747
13.9693 -26.8060 11.0265
19.1741 -25.2667 10.4692
19.7236 -24.2166 12.5722
22.4674 -25.3755 10.9445
17.0694 -26.5784 9.5875
18.9785 -26.5697 8.5088
15.0687 -26.9427 9.9699
20.3521 -26.6146 7.8270
14.1452 -26.3104 13.2140
16.8255 -24.5945 14.2384
20.4932 -23.7519 14.4946
21.4160 -26.9737 7.1516
22.5379 -27.0087 7.1844
24.6113 -26.5001 10.9378
26.3635 -25.9009 14.0389
14.3972 -26.0821 12.1023
17.9145 -24.6082 12.3262
17.5641 -25.4354 11.1098
21.1181 -24.5273 11.7389
21.5008 -24.4742 12.7029
20.8354 -24.7652 10.7357
20.5765 -25.0301 9.7922
20.2663 -25.6858 9.0761
19.1812 -27.2047 7.3485
18.2427 -23.9137 13.4526
19.2224 -23.6874 15.9264
18.6124 -23.7852 14.5812
22.0932 -24.3286 13.8880
20.6177 -23.7807 16.4103
22.0007 -23.8772 15.3375
23.3716 -24.5979 14.3328
24.8320 -24.9464 14.9633
24.7133 -25.5396 13.3237
15.3748 -25.5138 13.9145
26.0352 -26.7122 11.9212
24.6151 -25.9115 12.1691
14.3851 -26.1645 15.0347
17.3885 -24.5360 16.6959
19.2270 -24.1125 17.4020
15.6440 -25.3641 15.8464
19.2685 -24.8768 18.7795
15.5698 -25.3492 14.8176
20.8102 -24.7240 18.3273
23.4902 -24.2626 15.9157
22.2000 -24.1812 16.9838
31.7696 -30.4791 20.4660
1.0913 -44.3474 24.7660
22.2160 -71.2859 21.9235
9.6199 -69.3967 17.9393
2.1799 -68.9638 22.9835
21.4537 -71.3595 22.4367
2.8900 -68.8530 22.2524
3.8327 -69.4062 23.0007
22.8375 -71.4854 20.7622
33.9585 -35.6373 26.0389
0.4490 -69.4534 26.8737
19.7528 -70.7111 24.2820
23.9380 -71.4807 19.9227
22.1973 -71.2386 21.3552
-0.0317 -44.1773 22.9109
0.0113 -42.4300 22.7884
-0.1737 -69.2488 24.5815
0.6987 -68.2126 23.9029
1.5673 -67.9451 23.2997
3.3036 -69.4246 30.1135
13.8076 -30.3900 24.8831
33.8558 -50.0994 31.1828
34.9381 -34.8340 23.3121
30.3046 -28.7472 18.2373
33.5397 -45.4073 29.8492
36.6426 -48.4756 28.1374
27.1842 -68.9967 23.4187
-8.0246 -69.2663 24.0346
7.4712 -68.6081 17.1156
7.5870 -69.1547 17.7889
37.4323 -48.3086 26.5415
5.6820 -67.3982 17.4579
35.7719 -40.9793 27.2031
35.9504 -38.7541 26.0541
15.5568 -30.0436 24.9771
23.2990 -25.2828 12.5935
24.6113 -26.5001 10.9378
26.3635 -25.9009 14.0389
14.5176 -28.6108 22.7051
4.1221 -69.0206 19.4699
-0.0133 -68.8249 23.9843
3.4235 -69.1667 20.6765
-2.2840 -47.1780 21.8554
-1.5781 -46.3174 21.3096
2.5412 -67.5251 21.3159
-8.8031 -71.0891 23.2978
-8.9446 -70.5623 22.3618
33.8264 -31.4197 18.8817
22.8140 -71.2778 21.3253
22.2160 -71.5480 21.3254
2.3240 -64.4159 19.5514
2.3839 -64.2238 18.3028
3.8206 -68.5264 18.3619
0.9554 -69.3414 30.4000
2.1715 -68.7766 30.4650
1.9430 -63.4735 20.1449
2.3147 -67.4651 20.1618
3.8304 -68.6775 18.8702
-9.6346 -71.0538 24.1671
22.6196 -70.5601 23.2252
-1.8524 -69.4531 30.6689
2.7263 -68.4924 20.3059
-0.0542 -67.0395 23.4673
1.7669 -69.3210 29.6336
-2.0633 -47.9570 21.5359
-4.7420 -46.8261 24.0842
32.3025 -29.3541 18.0291
3.3924 -68.4748 18.4740
2.2594 -67.4621 22.1666
5.9556 -69.2702 19.1784
-2.3918 -46.2641 22.5438
-2.3080 -45.6240 23.5557
37.6721 -36.3651 16.5682
-0.7095 -42.9062 21.4224
-1.1289 -45.0143 21.7875
2.2254 -63.4891 17.9783
2.8415 -67.4331 19.5048
3.4380 -68.5024 19.4727
2.7656 -67.3036 18.6573
2.6421 -67.5823 18.2481
34.9257 -31.3846 15.8063
34.5328 -30.9780 16.5679
31.4021 -28.7922 16.7355
-4.7183 -48.2185 23.5168
-8.4550 -69.3406 20.7655
-9.7345 -69.5483 22.0284
-8.1837 -70.6952 22.2946
-2.9827 -69.2542 24.1249
1.1330 -62.0069 18.8395
2.1483 -64.9401 21.5049
2.9366 -68.8260 30.7326
-10.8953 -66.9969 19.2799
-2.0866 -47.6537 20.1359
-8.4349 -71.0151 23.1816
-2.0486 -45.3150 19.6111
-9.0919 -69.6122 24.2859
4.6125 -68.3754 18.5191
-0.2804 -41.0582 21.9045
-1.0095 -41.9531 20.2570
-1.3332 -68.9063 24.0934
-0.6790 -44.8111 23.6189
36.9788 -38.7440 24.5189
37.3756 -41.3970 25.6525
38.2598 -41.4145 24.1714
25.3627 -70.5001 21.5515
37.6864 -38.0409 20.7559
38.5876 -41.9041 23.2872
37.6332 -36.5025 14.8869
35.8564 -34.0375 13.3858
38.4235 -38.8847 17.1045
33.8242 -30.6365 14.3799
33.2000 -29.5979 16.0246
31.7575 -29.0255 15.4721
1.5294 -65.7457 22.9412
0.6931 -66.3802 23.5839
-8.1579 -69.6345 23.5956
-12.1881 -69.3322 24.2305
5.1644 -66.8908 17.8526
-7.9083 -70.7115 23.0706
5.6177 -68.7324 18.4176
5.9171 -68.7360 17.8772
30.8373 -28.7290 14.2920
29.9604 -28.9761 12.3593
36.9366 -37.4624 11.2781
34.3622 -33.1724 12.0714
38.0976 -39.7229 13.1624
38.6008 -41.4560 15.7161
1.8844 -64.6961 22.4055
0.9689 -63.0400 20.4322
33.2953 -34.9007 7.4310
39.2916 -43.6501 12.5447
38.2421 -41.4521 9.5911
36.9276 -39.5328 8.2179
27.7079 -29.2646 9.1104
27.6766 -27.6973 11.4932
36.6181 -45.2816 27.2762
35.6278 -48.1655 29.2182
-0.5344 -40.8333 20.2184
1.1138 -38.6381 24.1842
0.5973 -39.8022 24.4718
29.3332 -27.5553 15.9126
28.9672 -27.4846 13.6366
26.0352 -26.7122 11.9212
27.5106 -26.8562 12.8917
24.6151 -25.9115 12.1691
28.3808 -27.4761 12.4487
27.9360 -26.5417 14.3243
-1.3407 -42.1997 18.6946
1.0913 -44.3474 24.7660
-13.9903 -69.3320 31.5820
4.6806 -63.6870 36.4293
-4.6742 -66.9494 39.6546
3.1888 -64.2048 38.2056
-7.1552 -66.0464 41.1069
23.2824 -71.2459 20.2911
-1.5734 -45.2866 25.9647
5.4572 -63.2230 34.0210
22.0594 -69.8565 20.7271
-4.8901 -46.0063 25.3054
23.9380 -71.4808 19.9227
-6.6101 -68.8791 37.9138
17.2943 -69.5483 16.3304
3.3036 -69.4246 30.1135
-7.9740 -44.5261 27.4611
-8.0841 -69.3941 36.2095
-10.9537 -70.5534 36.2986
-9.2081 -69.8314 37.4311
-1.6336 -65.3295 41.6929
-3.4673 -62.9030 43.9538
-8.8362 -62.1832 44.8570
0.7991 -65.3397 40.4062
4.9243 -67.9840 29.0601
5.3303 -65.0883 29.4051
-13.3968 -69.6015 27.4920
-12.4602 -70.4369 26.4085
27.1842 -68.9967 23.4187
-8.0246 -69.2663 24.0346
-13.1458 -69.3586 33.0948
-13.9146 -70.2329 27.8516
-14.2814 -70.1514 26.9860
29.4879 -67.7742 22.4185
33.2987 -63.6681 22.4497
35.9782 -59.2001 23.4809
37.0799 -57.1630 20.6273
4.1070 -69.1137 29.5790
14.1452 -26.3104 13.2140
14.3972 -26.0821 12.1023
0.9554 -69.3414 30.4000
2.1715 -68.7766 30.4650
-1.8524 -69.4531 30.6689
-4.7420 -46.8261 24.0842
-2.3918 -46.2641 22.5438
-2.3080 -45.6240 23.5557
-4.7183 -48.2185 23.5168
2.9366 -68.8260 30.7326
-0.6790 -44.8111 23.6189
25.3627 -70.5002 21.5515
1.6453 -65.8217 37.1439
0.0872 -66.7085 37.0598
-2.7969 -68.6333 35.1408
25.4931 -69.5687 14.1374
0.1696 -69.6673 30.9666
-2.9375 -69.3680 32.7611
-4.4537 -64.9735 42.0668
-6.4550 -63.8554 43.6016
-0.9972 -66.0494 40.5157
-1.7653 -66.9914 37.9074
3.4207 -65.8657 34.8934
-4.4483 -69.4339 36.1608
-1.7182 -69.8954 31.5230
-8.9212 -64.5680 43.1738
2.0495 -68.2768 32.5986
4.3797 -65.1446 33.8716
-0.0814 -68.6615 33.8845
1.3224 -68.1964 33.9007
4.3967 -65.3660 30.9474
23.6440 -69.7868 18.0373
-0.6140 -69.9449 31.0489
-5.2679 -47.1599 24.2745
3.2805 -68.6950 30.5369
3.6664 -66.0733 30.8676
1.9702 -68.4813 30.7734
28.9875 -68.7443 20.1351
26.1403 -69.8725 14.7756
3.8668 -66.2560 30.9845
24.9345 -71.0907 17.7269
23.1457 -70.1687 19.8654
25.0034 -69.8290 15.7260
29.7928 -67.7016 14.7440
28.1419 -68.7510 12.9309
26.7126 -69.3763 13.4628
21.0935 -69.6229 15.4116
-5.8870 -46.5793 24.4527
-6.0001 -45.8955 25.2074
23.2482 -69.7023 14.7173
-12.0224 -70.5161 25.6544
-5.5160 -68.7993 37.2714
2.9960 -67.2158 30.9549
-4.2888 -68.3628 36.9598
-13.7171 -70.4573 27.2843
-3.6933 -68.9491 36.1380
4.1429 -68.2239 30.6717
24.5310 -70.0530 17.1749
24.3778 -70.0703 17.9389
27.0033 -69.8872 20.9921
27.6717 -69.3177 12.1753
28.1619 -68.6493 11.1366
-9.9836 -69.4220 36.0049
-10.8267 -69.6591 35.8726
27.4902 -69.4302 11.4287
31.4036 -66.3755 14.4857
33.0636 -64.7532 19.0057
32.0966 -65.9951 19.4426
34.9623 -61.6137 21.3666
30.7412 -67.0012 11.5264
36.1471 -59.7148 19.2881
33.4562 -63.7747 15.0711
24.5867 -69.6414 12.3084
23.7480 -69.8840 13.4544
11.5801 -28.2619 10.9936
12.6102 -27.2439 14.1143
13.4407 -26.7065 12.0517
14.3851 -26.1645 15.0347
12.9394 -26.9735 12.7021
13.2846 -26.6881 15.8036
37.1444 -51.1696 24.1507
37.4323 -48.3086 26.5415
36.7398 -54.7388 23.3027
37.0799 -57.1630 20.6273
2.3839 -64.2238 18.3028
3.3924 -68.4748 18.4740
2.2254 -63.4892 17.9783
2.6421 -67.5823 18.2481
1.1330 -62.0069 18.8395
37.3756 -41.3970 25.6525
38.2598 -41.4146 24.1714
38.5876 -41.9041 23.2872
5.1644 -66.8908 17.8526
38.6008 -41.4560 15.7161
39.2916 -43.6501 12.5447
36.6181 -45.2816 27.2762
3.4408 -67.9499 17.8802
3.4203 -64.9890 17.0086
3.0544 -65.0576 17.5163
38.8009 -50.2011 16.4740
38.6960 -48.8181 19.6277
37.8205 -44.6170 24.9324
38.4454 -45.5313 21.3867
38.5307 -44.6384 18.2577
3.6740 -65.2812 14.8485
3.5614 -65.6329 17.5707
37.4226 -54.7032 13.3543
38.8413 -49.3433 14.2606
37.1161 -53.9044 18.8506
37.5124 -51.9697 19.3240
4.0704 -65.7195 17.7571
37.0799 -57.1630 20.6273
21.8501 -25.8648 8.8562
22.4674 -25.3755 10.9445
22.5379 -27.0087 7.1844
24.6113 -26.5001 10.9378
33.2953 -34.9007 7.4310
39.2916 -43.6501 12.5447
38.2421 -41.4521 9.5911
36.9276 -39.5328 8.2179
27.7079 -29.2646 9.1104
28.1619 -68.6493 11.1366
27.4902 -69.4302 11.4287
31.4036 -66.3755 14.4857
30.7412 -67.0011 11.5264
36.1471 -59.7148 19.2881
33.4562 -63.7747 15.0711
12.6102 -27.2439 14.1143
14.3851 -26.1645 15.0347
13.2846 -26.6881 15.8036
37.4226 -54.7032 13.3543
38.8413 -49.3433 14.2606
37.1161 -53.9044 18.8506
32.2640 -46.1668 -0.6063
36.4417 -57.8193 11.5653
36.7904 -55.6677 16.5639
32.6263 -62.2868 7.4119
37.6252 -47.9309 5.2561
36.6643 -56.8097 10.3781
38.6452 -50.0319 10.4598
38.3226 -50.8520 10.4098
35.1538 -60.0733 13.5900
36.0004 -56.2760 7.1772
34.4862 -60.3175 8.1934
32.5060 -64.7395 12.6906
33.3928 -62.1982 9.5302
27.9828 -38.6358 -1.3582
30.8936 -41.0401 0.3801
37.0049 -50.3546 4.8381
39.0030 -46.4551 8.6842
39.0269 -43.4934 10.2933
39.2499 -47.1453 11.2299
38.0828 -44.0519 6.7932
36.0296 -57.5222 14.9047
35.5817 -59.2707 9.8396
36.6804 -58.0756 18.1138
27.1623 -68.7516 9.9345
30.5715 -66.3802 8.7958
32.2782 -65.0430 9.7529
36.6713 -42.7488 5.3209
35.5179 -49.5014 2.4133
31.3081 -64.5502 7.3868
27.2352 -34.7488 0.2194
30.2071 -37.7523 0.9650
36.7252 -46.2188 4.1003
29.2613 -33.3764 3.4946
33.5250 -37.5516 4.8516
26.2195 -30.0497 5.0133
24.9192 -28.2420 7.0830
26.8791 -32.9538 1.6645
23.7438 -34.5634 -1.7193
21.1581 -34.7922 -1.9022
24.7448 -29.2730 4.8674
20.3628 -33.7065 -0.8443
22.3501 -31.8423 1.2045
23.5452 -27.9270 6.4453
19.8659 -32.1137 1.1847
22.7516 -29.7130 3.5538
22.0463 -28.3224 5.5535
19.6456 -30.0405 3.0155
12.2032 -27.3479 16.5829
17.3885 -24.5360 16.6959
14.5995 -26.3920 18.4438
14.1247 -26.2982 16.7848
23.4593 -26.9718 7.7695
24.1222 -26.8359 9.1388
16.1586 -25.4912 18.1177
13.3264 -26.7753 17.8753
15.5711 -25.5448 17.1979
19.2270 -24.1125 17.4020
15.6440 -25.3641 15.8464
18.2369 -24.7569 18.2594
19.2685 -24.8768 18.7795
16.1087 -26.1906 19.7286
18.1315 -25.7984 19.8695
17.1964 -25.1378 18.5404
19.9329 -25.5633 20.0786
32.2640 -46.1668 -0.6063
27.9828 -38.6358 -1.3582
30.8936 -41.0401 0.3801
27.2352 -34.7488 0.2194
23.7438 -34.5634 -1.7193
21.1581 -34.7922 -1.9022
26.9025 -42.6862 -3.9564
28.7654 -44.7613 -3.4963
31.8774 -50.2133 -0.7846
29.1380 -45.9607 -3.4263
25.9514 -39.5454 -3.6637
28.4606 -48.8307 -3.8772
30.4836 -52.7779 -1.4986
24.6613 -36.3763 -2.6523
27.4442 -45.6102 -4.4675
25.4654 -41.7495 -4.3436
24.1050 -39.2642 -3.8556
22.1003 -37.3382 -3.3291
28.4606 -48.8307 -3.8772
30.4836 -52.7779 -1.4986
27.4442 -45.6103 -4.4675
25.4654 -41.7495 -4.3436
24.1050 -39.2642 -3.8556
26.5460 -50.0420 -4.3142
20.2561 -50.1478 -4.6153
21.4601 -51.8500 -4.2557
17.8017 -53.8801 -3.1865
25.1914 -52.7902 -3.3866
23.8394 -48.7435 -5.1809
24.0013 -42.3710 -4.6024
26.2137 -46.6677 -4.9583
28.3530 -56.3233 -0.7525
24.0717 -54.8615 -2.4205
16.2996 -46.3091 -3.6307
18.3532 -51.9108 -3.9860
29.1866 -52.9604 -2.2355
18.3357 -43.6362 -3.7378
16.8294 -52.2620 -3.5082
21.5151 -46.0517 -4.5803
16.9623 -50.4502 -3.8888
13.8076 -30.3900 24.8831
-8.0246 -69.2663 24.0346
14.5176 -28.6108 22.7051
-0.0542 -67.0395 23.4673
-8.4550 -69.3406 20.7655
-8.1837 -70.6952 22.2946
-2.9827 -69.2542 24.1249
-10.8953 -66.9969 19.2799
12.5624 -28.4893 22.0872
-1.3332 -68.9063 24.0934
1.5294 -65.7457 22.9412
0.6931 -66.3802 23.5839
-7.9083 -70.7115 23.0706
1.8844 -64.6961 22.4055
0.9689 -63.0400 20.4322
32.2640 -46.1668 -0.6063
32.6263 -62.2868 7.4119
36.0004 -56.2760 7.1772
34.4862 -60.3175 8.1934
37.0049 -50.3546 4.8381
27.1623 -68.7516 9.9345
30.5715 -66.3802 8.7958
35.5179 -49.5014 2.4133
31.3081 -64.5502 7.3868
12.2032 -27.3479 16.5829
14.5995 -26.3920 18.4438
13.3264 -26.7753 17.8753
31.8774 -50.2133 -0.7846
30.4836 -52.7779 -1.4986
28.3530 -56.3233 -0.7525
29.1866 -52.9604 -2.2355
14.5422 -27.9703 21.8338
13.9030 -27.8523 21.2499
12.3898 -27.7760 19.3553
31.8894 -59.2231 3.1864
-6.4150 -63.2760 16.5354
-4.6987 -61.8955 16.9308
-4.1301 -59.1922 17.0571
-5.7731 -60.8563 16.2567
28.1213 -66.3793 7.1336
25.1389 -66.0527 6.8039
28.5234 -63.3319 5.4948
25.9335 -59.1359 0.5702
30.1888 -62.5755 5.3849
31.5168 -61.8975 5.7723
28.5150 -66.8928 7.7488
33.3322 -57.7634 3.4797
0.5002 -64.8983 22.2950
-4.3772 -69.5230 21.9573
-4.9008 -70.5047 22.6457
-2.9551 -60.4068 17.9635
-6.7864 -56.0614 16.6422
-2.4723 -69.2606 23.0108
-5.4279 -69.7733 23.3311
-6.3145 -69.5835 22.9839
-6.0177 -70.5508 22.5150
-5.4850 -70.5485 22.8907
-4.0864 -70.2364 23.0779
-4.1904 -70.4481 23.0358
-1.9111 -60.2029 18.4299
-4.0319 -69.6264 23.2854
24.1337 -62.8047 2.9459
-3.3772 -69.9522 23.1686
30.8524 -56.2932 0.4529
26.1872 -67.8706 8.1711
35.6076 -51.4852 3.0085
-2.5881 -68.5799 21.9659
-3.9981 -66.3048 19.0763
30.4662 -59.0228 1.9952
-8.5202 -61.0949 15.6616
-8.0290 -59.4915 15.7416
29.9988 -65.3688 6.9361
-1.3023 -66.7003 21.9545
-2.1965 -63.5998 19.9563
1.3147 -65.0880 22.8064
-6.8936 -69.6358 22.9421
-7.0415 -70.5836 22.3678
-6.0872 -64.7212 17.1126
-2.4939 -58.6774 17.6023
-6.2683 -67.1197 18.6514
-3.6435 -55.8301 17.6855
-5.6897 -68.2436 19.8074
-3.3358 -57.5344 17.3579
-1.2264 -59.3093 17.9430
-8.0581 -68.0468 19.2952
-1.2817 -62.7374 20.1297
0.9143 -64.0245 21.5910
-0.1986 -63.8858 21.2100
-2.1634 -57.7894 17.3963
-2.6047 -56.2875 17.3829
-0.1856 -59.9563 17.9034
-0.0559 -61.5399 19.3818
15.2015 -27.4996 21.4780
16.1087 -26.1906 19.7286
14.4499 -26.9925 20.0580
16.9388 -27.2006 21.5398
18.1315 -25.7984 19.8695
15.9272 -28.5104 22.9916
10.0966 -28.3069 13.4790
19.1307 -27.1148 22.2064
17.2213 -28.0054 22.8995
19.9329 -25.5633 20.0786
9.9363 -28.5403 17.1766
9.4327 -29.4849 19.7309
10.7112 -29.0935 21.2225
10.4293 -30.5593 22.5301
29.0978 -29.7355 21.0187
25.2249 -31.0845 25.0252
19.5469 -29.8299 25.0339
8.5885 -67.4137 12.2726
14.6449 -69.4447 16.1240
21.9104 -30.6067 25.5586
15.6256 -67.9428 11.1415
11.6632 -67.3773 11.1914
29.1383 -31.2953 24.5386
-7.9740 -44.5261 27.4611
30.3046 -28.7472 18.2373
5.9716 -67.1990 14.9458
14.5859 -69.5769 15.2326
-10.5931 -43.4243 28.5014
-8.8901 -44.1023 26.8142
5.6820 -67.3982 17.4579
15.5568 -30.0436 24.9771
17.6744 -29.7326 24.9046
13.0745 -28.2723 9.0065
15.0217 -28.0357 8.2371
17.3093 -28.3356 6.7232
19.9645 -27.9119 6.2698
13.9693 -26.8060 11.0265
21.4160 -26.9737 7.1516
22.5379 -27.0087 7.1844
26.3635 -25.9009 14.0389
14.3972 -26.0821 12.1023
24.8320 -24.9464 14.9633
14.5176 -28.6108 22.7051
-2.0633 -47.9570 21.5359
-4.7183 -48.2185 23.5168
1.1330 -62.0069 18.8395
-2.0866 -47.6537 20.1359
5.1644 -66.8908 17.8526
0.9689 -63.0400 20.4322
29.3332 -27.5553 15.9126
27.9360 -26.5417 14.3243
-5.8870 -46.5793 24.4527
-6.0001 -45.8956 25.2074
27.4902 -69.4302 11.4286
24.5867 -69.6414 12.3084
23.7480 -69.8840 13.4544
11.5801 -28.2619 10.9936
12.6102 -27.2439 14.1143
13.4407 -26.7065 12.0517
3.6740 -65.2813 14.8485
27.1623 -68.7516 9.9345
21.1581 -34.7922 -1.9022
20.3627 -33.7065 -0.8443
19.8659 -32.1137 1.1847
22.0463 -28.3224 5.5535
19.6456 -30.0405 3.0155
12.2032 -27.3479 16.5829
19.2685 -24.8768 18.7795
24.1050 -39.2642 -3.8556
22.1003 -37.3382 -3.3291
17.8017 -53.8801 -3.1865
28.3530 -56.3233 -0.7525
24.0717 -54.8615 -2.4205
16.2996 -46.3091 -3.6307
18.3357 -43.6362 -3.7378
16.8294 -52.2620 -3.5082
16.9623 -50.4502 -3.8888
25.1389 -66.0528 6.8039
25.9335 -59.1359 0.5702
24.1337 -62.8047 2.9459
26.1872 -67.8706 8.1711
-0.1856 -59.9563 17.9034
-0.0559 -61.5399 19.3818
26.9229 -29.5133 22.0385
27.9035 -30.2319 22.7267
26.6858 -30.2857 23.4832
24.7636 -29.8850 23.7700
28.8056 -28.3438 18.7414
15.9272 -28.5104 22.9916
16.7499 -29.0954 23.9741
27.3900 -28.2508 19.4381
26.4957 -28.6539 20.7517
15.9678 -66.6854 6.6420
20.7326 -59.9764 0.0790
17.9277 -57.4765 -1.6682
22.2424 -58.0972 -1.0170
12.6338 -59.4332 1.9259
9.0145 -56.9327 0.9986
7.8376 -40.0994 0.7824
15.9950 -36.5601 -1.5447
-9.3505 -48.2764 20.5063
-7.6021 -48.6914 20.5810
8.2566 -43.6891 -1.7283
6.2968 -59.3449 4.0960
5.8982 -60.8439 5.4975
9.0112 -50.0004 -1.9986
5.9063 -49.4266 -0.9430
8.3758 -51.5764 -1.2684
11.0002 -52.8793 -1.5430
9.2528 -54.2231 -0.5432
15.0379 -60.6294 1.7979
17.6486 -61.4577 1.3442
7.2658 -63.4954 7.1783
9.7573 -58.1126 1.6748
4.7172 -56.9944 3.1004
4.1987 -53.7693 2.5627
18.1405 -65.4087 4.9491
3.3628 -56.9487 4.2036
18.9285 -62.5173 1.9471
17.3059 -67.8092 9.5624
22.3161 -67.2358 7.8950
23.7079 -68.6440 9.0454
20.9541 -69.8479 11.4773
25.2041 -69.2461 10.0871
4.0947 -47.4178 0.3804
5.1489 -48.2186 -0.5942
6.2363 -46.3048 -1.2442
8.1377 -48.0205 -2.1055
7.8630 -41.4972 -0.5133
11.6749 -42.8055 -2.7177
2.7656 -46.4909 2.5123
13.5260 -44.8540 -3.2480
7.4283 -42.3615 -0.9981
3.3477 -43.9729 2.2142
5.8945 -38.6260 3.7757
-7.3070 -45.6239 24.6573
-8.7443 -46.9437 22.7947
-7.6126 -44.8123 25.8879
-6.8544 -47.8997 22.0517
4.2562 -63.7202 10.4650
3.0709 -51.8576 2.8665
12.8062 -55.7106 -1.7842
25.5267 -69.5701 11.7906
26.4894 -69.3218 10.8420
9.4805 -65.4711 8.0198
13.9386 -57.1847 -1.3412
11.7624 -47.6407 -2.6453
7.6631 -66.7528 11.5440
-8.6608 -44.9467 25.2695
2.0831 -55.0834 5.2243
2.6482 -58.7946 7.4015
1.9486 -51.5301 4.6941
4.5538 -51.5792 0.9729
20.6051 -65.6449 5.2838
13.4520 -36.0359 0.0915
-11.0925 -46.9867 22.9246
-10.6446 -45.1577 25.1400
6.4501 -65.3055 10.2261
1.7677 -56.0891 6.2531
12.6934 -50.5942 -2.2108
2.5675 -61.9658 10.5449
11.7827 -40.8342 -2.0904
13.7911 -38.1443 -1.3816
14.9631 -40.1051 -3.3796
-11.6673 -44.2847 26.9870
24.3239 -70.1152 11.4906
14.3637 -65.1975 5.3856
10.9501 -60.7740 3.9482
6.6210 -34.4409 5.7671
2.0855 -43.8299 4.4783
0.9726 -44.4778 7.2506
5.3459 -42.6658 0.4756
4.0148 -40.2391 4.9968
1.5909 -47.8014 5.3942
17.0128 -40.4393 -3.5218
-0.9601 -48.7965 11.9197
-0.3492 -47.6446 9.6415
18.4678 -38.7548 -3.2596
1.2756 -53.5005 6.4601
0.7714 -51.1116 6.4448
-0.7619 -56.5185 15.0227
0.3149 -60.1216 16.8778
0.3476 -52.1810 10.2994
14.8538 -52.9491 -2.7123
9.8289 -36.7356 2.1884
-0.1683 -57.1088 12.5067
0.8119 -56.1881 9.7547
7.6410 -38.7107 2.4009
7.8492 -34.4492 4.5224
10.3178 -38.5210 1.2254
1.6977 -60.9262 11.1460
1.3576 -59.3825 10.7121
14.2163 -48.3961 -3.0412
1.4192 -61.7053 13.1211
13.1158 -39.7581 -2.3004
-1.0495 -52.8342 13.1584
23.0174 -70.5878 12.9174
0.4703 -43.5233 9.9631
-2.9137 -49.1004 21.8644
1.9384 -42.6323 6.3756
-2.2186 -52.7587 16.8764
20.6472 -70.6772 13.4757
-1.4090 -45.7689 13.2413
-2.9991 -50.7852 19.3355
16.7333 -70.4671 15.9535
18.0584 -69.7859 12.9458
0.1526 -49.4082 8.6729
23.8677 -70.3326 12.4326
15.6964 -55.7956 -2.2769
9.7279 -33.1972 4.5717
10.8705 -34.6113 3.2740
-2.4805 -49.4556 19.1063
-2.5803 -50.4720 17.9834
-2.8000 -48.0412 15.6701
11.4513 -35.4640 2.1177
-2.3871 -48.8303 20.6141
14.3497 -33.7561 2.8008
12.3918 -33.1465 3.9880
11.0632 -31.0199 5.5855
15.9718 -30.6677 4.1198
10.5603 -30.8395 6.1524
10.3960 -30.8960 6.1561
12.3671 -30.0829 5.8918
10.3153 -30.4828 6.8056
9.2230 -30.5434 7.7257
8.2170 -30.4242 10.5348
10.0966 -28.3069 13.4790
24.9255 -28.5829 22.1241
24.4183 -26.3289 18.8376
19.1307 -27.1148 22.2064
29.0998 -27.7800 17.5913
27.8230 -27.3189 17.6792
21.8544 -26.1346 20.2013
22.7227 -27.4282 21.8662
24.1933 -27.3550 20.4379
17.2213 -28.0054 22.8995
17.8480 -28.4279 23.6228
18.8204 -28.6554 23.9552
20.8102 -24.7240 18.3273
23.4902 -24.2626 15.9157
26.1642 -27.0390 18.4690
25.7570 -27.5920 19.6483
26.3105 -26.1250 17.0754
25.8917 -29.3850 22.8426
23.1855 -28.8093 23.2910
19.9238 -28.5346 23.8047
21.2630 -28.2597 23.2561
21.0506 -26.8144 21.7505
20.4607 -26.0623 21.0807
23.2543 -26.2655 19.5052
23.8035 -25.0167 17.4028
22.2000 -24.1812 16.9838
22.6984 -25.2893 18.5378
19.9329 -25.5633 20.0786
25.1400 -25.9351 17.6721
24.9600 -25.0904 16.4622
27.4682 -26.1840 15.2460
26.2251 -25.4737 15.6933
27.4483 -26.3650 16.3251
20.7789 -29.1840 24.3809
-16.1606 -68.9348 35.4803
14.6449 -69.4447 16.1240
17.2943 -69.5483 16.3304
-14.8180 -70.3386 30.1077
-14.6725 -70.4136 31.7058
-12.4602 -70.4369 26.4085
-8.0246 -69.2663 24.0346
-12.1156 -69.4043 27.0461
-14.2814 -70.1514 26.9860
-9.6346 -71.0539 24.1671
-2.0634 -47.9570 21.5359
-4.7183 -48.2185 23.5168
-10.8953 -66.9969 19.2799
-9.0919 -69.6123 24.2859
-12.1881 -69.3322 24.2305
21.0935 -69.6229 15.4116
23.2482 -69.7023 14.7173
-12.0224 -70.5161 25.6544
23.7480 -69.8840 13.4544
-6.4150 -63.2760 16.5354
-6.7864 -56.0614 16.6422
-8.5202 -61.0949 15.6617
-8.0290 -59.4915 15.7416
-6.0872 -64.7212 17.1126
-3.6435 -55.8301 17.6855
-1.2264 -59.3093 17.9430
-8.0581 -68.0468 19.2952
-2.1634 -57.7894 17.3963
-2.6047 -56.2875 17.3829
-0.1856 -59.9563 17.9034
-9.3505 -48.2764 20.5063
-7.6021 -48.6914 20.5810
-6.8544 -47.8997 22.0517
-0.7619 -56.5185 15.0227
0.3149 -60.1216 16.8778
23.0174 -70.5878 12.9174
-2.9137 -49.1004 21.8644
-2.2186 -52.7587 16.8764
20.6472 -70.6772 13.4757
-2.9991 -50.7852 19.3355
16.7333 -70.4671 15.9535
18.0584 -69.7859 12.9458
-10.6796 -71.0335 25.5121
-10.6749 -70.6996 25.5358
-10.3864 -70.9892 25.0123
20.9084 -69.8538 14.4357
-8.4300 -53.6203 17.3947
-9.1797 -50.2948 19.2397
-7.5504 -51.9502 18.5934
-11.5624 -55.5617 16.8808
-4.7559 -50.2830 21.1976
19.8907 -70.7255 14.5344
18.0074 -69.9070 15.6431
22.5283 -70.3783 13.8364
18.8297 -70.6436 14.9735
16.1903 -69.7349 16.3038
19.6851 -69.9019 15.3229
21.7928 -70.0349 14.1857
22.1599 -70.9607 13.5551
-1.3069 -57.4708 16.8843
-17.0407 -51.8927 30.0600
-14.1116 -62.6392 17.6077
-10.4604 -64.8080 17.1886
-9.7476 -59.3891 15.6692
-12.5559 -61.8902 16.3858
-10.0827 -62.1482 15.8310
-1.9508 -56.0873 16.9294
-4.2408 -53.4775 18.5079
-2.9363 -52.8225 18.1388
-16.2692 -57.0430 18.5367
-13.9186 -58.9701 16.7328
-10.3886 -56.5475 16.2750
-17.8186 -61.8802 22.0234
-18.7528 -58.9738 20.9206
-15.1292 -50.9668 28.3725
-4.3387 -51.6208 19.7437
-3.6934 -50.5092 20.4906
-5.7064 -50.8183 20.3065
-8.6416 -48.9859 19.9885
-14.2652 -47.2130 27.4770
-15.7021 -48.1440 29.1692
-3.3503 -49.0533 22.5080
-3.8942 -49.0490 22.8345
-3.3947 -52.3529 18.7562
-16.0897 -60.3503 18.0198
-10.3097 -69.7690 25.7836
17.4949 -70.5463 15.4351
-11.3442 -69.5422 25.9853
21.1199 -70.7646 13.9325
20.5994 -70.9432 14.1427
18.0110 -70.7399 15.3418
-11.6646 -70.4906 25.8162
-3.5341 -54.0135 18.2048
-19.9636 -51.3021 32.3232
-13.0750 -47.3867 24.7769
-9.7570 -69.7361 25.0185
-13.5610 -50.0534 26.0919
-15.7620 -58.7319 17.7447
-13.3686 -65.2746 18.8661
-15.5126 -55.6955 18.6075
-0.5597 -58.6112 16.9394
-16.1689 -64.3754 21.1530
-17.6425 -64.9669 24.1116
-19.3848 -59.9285 22.9834
-17.9941 -59.7196 19.7280
-20.6967 -59.6920 25.9955
-20.9914 -60.4385 27.8142
-11.7052 -51.4424 19.2142
-19.7181 -54.7491 30.6724
-20.0829 -58.1534 24.8854
-15.5185 -53.3104 27.7342
19.2154 -70.7044 14.2948
-17.3262 -61.6652 19.5467
-21.2766 -58.2838 28.7720
-19.5276 -62.0682 25.0886
-20.3945 -62.5411 27.6622
-13.5935 -51.1080 25.5363
-17.4378 -54.9170 28.7459
-17.7928 -56.8465 20.6021
-14.1442 -66.5839 21.6245
-15.8217 -68.2371 25.4158
-19.8430 -65.5732 28.1710
-20.0125 -61.6881 32.6259
-19.9775 -65.2110 30.1650
-18.9397 -65.5336 26.2194
-17.8707 -66.9194 26.0965
-18.4768 -67.4883 27.6401
-19.2574 -67.1027 29.5692
-19.5806 -62.9436 37.4647
-19.0060 -66.6473 33.3361
-17.8323 -68.7497 30.7211
3.2179 -38.5574 27.2287
14.2600 -33.9536 29.4288
-12.3154 -43.1562 38.9074
-13.2253 -43.1344 35.2103
4.5822 -36.6414 25.7408
-13.7312 -44.9053 40.8507
11.8252 -33.8078 27.2977
8.3801 -35.3839 28.0820
-11.4014 -42.9380 36.5886
13.8076 -30.3900 24.8831
-9.9514 -43.5183 30.5828
-10.5931 -43.4243 28.5014
3.8206 -68.5264 18.3619
3.3924 -68.4749 18.4740
4.6125 -68.3754 18.5191
5.1644 -66.8908 17.8526
-0.5344 -40.8333 20.2184
1.1138 -38.6382 24.1843
0.5973 -39.8022 24.4718
3.4408 -67.9499 17.8802
4.0704 -65.7195 17.7571
-9.3505 -48.2764 20.5063
-11.0925 -46.9867 22.9246
-10.6446 -45.1577 25.1400
-11.6673 -44.2847 26.9870
6.6210 -34.4409 5.7671
8.2170 -30.4242 10.5348
10.0966 -28.3069 13.4790
-14.2652 -47.2130 27.4770
-15.7021 -48.1440 29.1692
-19.9636 -51.3021 32.3232
-13.0750 -47.3867 24.7769
-15.5126 -55.6955 18.6075
-20.9914 -60.4385 27.8142
-11.7052 -51.4425 19.2142
-19.7181 -54.7491 30.6724
-20.0829 -58.1534 24.8854
-15.5185 -53.3104 27.7342
-21.2766 -58.2839 28.7720
-13.5935 -51.1080 25.5363
-17.4378 -54.9170 28.7459
-17.7928 -56.8465 20.6021
-20.0125 -61.6881 32.6259
-13.4397 -43.2815 30.5258
-13.5713 -42.9930 32.5854
6.5815 -32.4765 10.4204
-20.4419 -56.0719 30.1961
-19.0579 -48.5807 32.1042
-12.6522 -45.3834 25.9952
-0.9909 -42.8468 15.6976
-11.8089 -48.4886 21.5618
-12.3687 -42.9803 30.2949
-20.1857 -56.9423 28.2243
-12.5570 -50.7606 20.4667
-20.9606 -57.1179 29.4354
-16.6197 -46.1261 31.3280
0.1980 -39.8648 20.3344
1.2969 -38.6887 21.1317
2.3025 -37.6863 22.9124
4.6446 -36.6694 22.4827
-17.5372 -55.7897 27.9100
4.6310 -66.7199 18.1189
-13.7326 -52.8882 19.6964
-1.3407 -42.1997 18.6946
9.9363 -28.5403 17.1766
-21.4915 -56.9923 32.5963
-21.2023 -58.5080 30.2697
-16.6828 -55.3037 20.9350
-15.5083 -54.5087 26.1815
-20.8437 -55.3057 31.7481
-19.9883 -49.7934 33.0183
-19.3265 -57.1825 25.0065
-21.3183 -57.2045 30.8317
-20.9709 -54.1671 33.3059
-20.0355 -49.5061 34.0245
-18.8668 -47.7231 32.8457
-14.6435 -43.5760 32.6817
-14.4813 -44.7425 29.4517
9.4327 -29.4849 19.7309
8.5847 -29.8496 17.3638
-18.3475 -56.6959 23.3889
6.2475 -35.7210 20.1643
-0.8164 -41.5113 18.4090
5.8790 -34.3096 8.9605
7.5632 -30.9393 12.1943
7.8103 -31.4634 18.7411
-17.9701 -56.4642 26.6175
-16.8344 -56.0962 25.2266
-14.6022 -53.3567 20.8874
-15.2422 -44.2048 31.7499
6.2020 -34.2691 14.2611
-15.5482 -55.0456 24.0252
6.7924 -34.5552 19.4273
10.7112 -29.0935 21.2225
8.8234 -30.9663 21.0374
8.0943 -34.2880 23.6467
8.6568 -33.4538 22.5788
10.4293 -30.5593 22.5301
-12.6897 -48.8987 22.3493
-20.4788 -59.7628 31.4939
-20.5214 -58.3198 36.0926
-20.4601 -51.6225 35.5459
-18.8952 -47.6551 34.2843
-19.1617 -49.3202 36.9869
-15.7145 -45.0440 36.2346
-21.1323 -55.6179 35.9171
-13.6136 -51.9303 21.7875
-14.5361 -53.7316 24.0031
1.2621 -38.8557 25.1130
10.2574 -32.9620 24.2259
-20.2529 -54.6278 37.8653
-19.0567 -48.2543 35.6997
-14.4837 -46.6383 41.7145
-16.8070 -46.9501 37.9871
-17.4295 -50.3608 40.5135
-16.1606 -68.9348 35.4803
-2.0866 -47.6537 20.1359
-2.0486 -45.3150 19.6111
0.4703 -43.5233 9.9631
1.9384 -42.6323 6.3756
-1.4090 -45.7689 13.2413
-2.4805 -49.4556 19.1063
-2.8000 -48.0412 15.6701
-20.0125 -61.6881 32.6259
-19.5806 -62.9436 37.4647
-19.0060 -66.6473 33.3361
-17.8323 -68.7497 30.7211
-0.9909 -42.8468 15.6976
0.1980 -39.8648 20.3344
1.2969 -38.6887 21.1317
2.3025 -37.6863 22.9124
4.6446 -36.6694 22.4827
-1.3407 -42.1997 18.6946
6.2475 -35.7210 20.1643
6.2021 -34.2690 14.2611
-20.5214 -58.3198 36.0926
-21.1323 -55.6179 35.9171
-20.2529 -54.6277 37.8653
-17.4295 -50.3608 40.5135
0.4530 -42.0091 14.1959
-2.5159 -45.8492 15.7748
-20.0445 -58.2406 38.2190
-2.6611 -46.8028 17.4836
2.6338 -38.7182 19.7405
-19.2473 -60.8053 40.4919
2.5190 -39.4238 17.7995
-17.8107 -66.9599 36.8154
-18.0122 -52.8659 40.8464
-18.9970 -63.8570 39.2840
2.3315 -40.4767 11.1823
3.6495 -38.4116 16.1041
6.6284 -59.5179 34.1019
3.1032 -40.0476 27.6858
3.2179 -38.5574 27.2287
1.2370 -43.3715 24.1535
3.2773 -43.2164 26.2583
-16.1606 -68.9348 35.4803
-10.3641 -69.6708 38.2551
5.8685 -64.3927 29.2388
5.5617 -61.5110 36.2804
-7.1552 -66.0464 41.1069
-11.8079 -57.4748 47.7215
7.0860 -64.5966 29.2205
8.2471 -58.5372 33.8976
5.4572 -63.2230 34.0210
5.9814 -60.0368 35.0558
0.0113 -42.4300 22.7884
-13.7312 -44.9053 40.8507
-13.1667 -45.3643 41.7772
-11.1994 -67.4116 40.9925
-11.4395 -50.9051 45.0145
9.2777 -67.2414 27.4031
-12.6392 -47.2949 43.3995
-8.8362 -62.1832 44.8570
5.3303 -65.0883 29.4051
-10.8731 -54.8872 47.1937
-11.6090 -60.4944 46.9411
-14.5871 -60.5474 46.5621
12.7437 -63.1175 32.6216
12.9704 -66.7141 29.7150
0.5973 -39.8022 24.4718
-8.9212 -64.5680 43.1738
4.3967 -65.3660 30.9474
6.6210 -34.4409 5.7671
4.0148 -40.2391 4.9968
1.9384 -42.6323 6.3756
5.8790 -34.3096 8.9605
6.2020 -34.2690 14.2611
1.2621 -38.8557 25.1130
-14.4837 -46.6383 41.7145
-17.4295 -50.3608 40.5135
-19.2473 -60.8053 40.4919
-17.8107 -66.9599 36.8154
-18.0122 -52.8659 40.8464
-18.9970 -63.8570 39.2840
2.3315 -40.4767 11.1823
3.6495 -38.4116 16.1041
-16.8102 -61.4885 44.7026
1.1189 -39.9949 25.5893
-15.0107 -59.1879 46.5471
4.8284 -64.4479 30.3938
5.4842 -63.7658 30.9553
6.1263 -63.8490 30.1720
6.4918 -62.9415 30.9769
7.5792 -61.4060 31.7316
7.5987 -63.4186 30.4371
5.9663 -62.6526 32.0302
7.5623 -59.5771 33.3939
3.8397 -38.7798 8.4362
5.0023 -36.0050 7.1764
3.3772 -39.8957 7.2900
5.1704 -36.1113 11.2254
-18.1922 -64.2210 40.6756
-17.5804 -60.4289 43.4546
-16.8347 -56.7736 44.2052
-16.3187 -59.3024 45.2744
-16.5614 -64.2144 42.8236
-14.6099 -68.2254 38.9509
-18.7276 -62.6909 40.9941
-16.7658 -66.4222 39.7194
-13.7904 -66.2328 42.4133
10.4785 -65.4671 30.2664
10.4983 -63.4998 31.7340
1.3044 -40.6532 25.5680
-16.7196 -62.4588 44.3090
-15.5487 -63.6802 44.1810
-15.3890 -61.8815 45.6135
-14.5264 -57.0681 46.2353
-12.9539 -56.6683 47.1264
-11.9805 -65.7282 43.0104
-14.4563 -63.0227 44.8270
-12.2660 -55.0145 46.4189
-11.7804 -52.4058 45.4039
-14.5167 -56.1512 45.5668
-13.7627 -52.5219 43.4886
-13.0080 -50.9639 44.0969
-13.1564 -53.7994 44.2067
-15.8424 -55.4681 44.1470
-14.9230 -49.8039 42.8738
-16.1460 -53.7007 42.8339
-16.0963 -51.8147 42.2550
-17.2904 -54.1260 42.1870
-16.1606 -68.9348 35.4803
-10.3641 -69.6708 38.2550
-13.7185 -70.7842 33.8141
-10.9537 -70.5534 36.2986
-13.1458 -69.3586 33.0948
-10.8267 -69.6591 35.8726
-14.6099 -68.2254 38.9509
-13.3395 -69.9266 33.8911
-12.0940 -70.5805 35.6208
-12.8431 -70.7011 34.8457
-12.1572 -69.7379 34.9689
-13.1843 -70.6075 35.2864