18.3595 -38.1593 46.0395
24.0056 -66.4542 24.7068
8.1792 -36.8647 26.2359
24.1866 -78.1572 24.7974
23.6669 -57.9545 24.9630
8.6096 -55.1162 43.8037
20.7353 -38.0219 45.4253
9.8763 -38.9877 22.9346
9.9830 -38.0034 43.6682
13.3916 -70.3456 46.2763
21.9652 -44.0852 45.4958
9.5349 -36.5897 42.3967
23.5503 -38.5916 22.7337
26.2549 -79.3285 27.8528
10.7030 -47.2647 44.9635
26.0033 -63.0149 26.9189
28.3420 -79.3171 38.4949
15.6144 -76.0458 47.2712
28.2182 -46.4411 28.4441
5.6685 -77.3527 24.4138
14.8611 -36.7593 45.2713
18.1065 -48.5770 46.7761
19.6852 -54.8309 22.3639
18.4339 -75.7959 47.1194
20.2207 -50.5081 46.4680
18.9247 -36.7485 45.3108
22.3755 -40.4380 21.9692
22.8810 -36.6053 37.4430
23.8174 -78.1840 44.8781
22.0944 -58.1752 45.3128
11.4297 -72.1942 46.2059
12.4579 -73.9318 21.1332
24.0994 -73.6441 25.1257
24.0596 -49.6805 44.3731
25.2654 -57.8908 26.7465
27.0840 -72.3305 28.2641
13.3889 -80.2031 20.8383
24.3146 -43.8404 44.0329
25.1348 -36.8686 39.4819
14.5747 -45.7849 21.5401
16.2261 -65.8982 46.7697
3.9857 -62.7978 29.2472
27.0922 -47.0751 26.7426
16.1621 -41.1330 20.8237
18.4419 -74.4691 21.9703
19.9441 -66.2762 22.6530
5.7369 -66.7380 42.1016
20.5122 -77.2185 46.5514
5.8111 -70.8355 24.5891
7.0371 -78.4049 43.9182
17.8950 -50.0625 22.1428
6.4417 -41.6259 26.1660
8.0314 -52.3558 24.1311
21.0095 -74.0896 46.3381
19.7768 -40.4930 46.1281
22.7363 -79.9197 24.1919
10.7272 -78.4709 46.3808
11.9788 -78.0697 20.9493
19.5587 -39.6620 20.9965
9.3926 -44.6702 22.9521
25.8973 -80.1153 27.2618
23.9516 -80.2524 24.7304
14.0650 -59.7084 21.1493
14.8983 -77.8824 20.9316
26.0670 -59.9000 40.8964
26.7164 -79.9876 30.5897
12.6882 -65.4139 46.3470
27.8798 -79.9876 35.5062
28.2589 -80.2498 32.2985
17.4312 -71.5933 21.8525
13.1820 -38.9572 21.2504
18.7081 -77.7321 21.3313
15.0130 -37.8567 45.7526
17.2051 -37.7348 21.4753
6.5079 -61.0423 42.6100
19.4761 -57.7830 46.1479
18.4150 -46.0632 21.9764
10.6970 -61.5246 21.7291
24.7632 -45.9704 24.6043
11.3469 -67.6003 21.2171
22.8387 -38.1226 44.5326
23.6318 -38.1310 23.4233
25.5480 -53.9918 26.6297
12.3390 -44.9782 21.7839
26.3505 -59.1499 28.5095
26.2148 -37.6868 24.8964
27.1801 -59.9494 31.5363
16.2188 -59.9107 21.2372
4.3798 -78.8572 28.1572
5.4380 -74.3005 42.5942
14.6444 -48.5545 46.4393
17.7818 -70.1665 46.3686
7.7826 -72.2816 22.5487
17.2151 -35.8765 44.9104
17.6016 -39.6300 46.3447
22.0729 -75.8360 23.0885
6.0284 -39.6611 38.7586
8.5344 -63.4632 22.6340
21.1845 -46.9118 22.9440
11.1561 -60.2226 45.6733
11.8369 -79.3089 21.1639
11.8049 -79.3116 46.6717
12.5997 -52.9477 21.9624
25.5637 -39.7589 24.1729
14.9210 -51.8818 21.7527
27.1993 -62.1670 29.1614
16.3100 -79.3182 21.0606
25.8284 -41.3299 42.4530
15.1959 -79.3230 47.2921
18.0271 -79.2870 21.3807
16.3486 -38.8319 20.8988
29.0198 -41.0770 29.4424
19.4719 -42.3950 21.2368
18.1619 -38.5941 21.0054
21.6443 -71.7896 23.4612
9.3338 -70.6109 21.7355
28.8525 -78.5847 32.9271
25.9266 -68.0738 41.8234
11.0673 -79.0331 45.8079
25.0144 -38.9992 43.1127
27.9238 -64.8018 34.8789
7.7207 -77.7675 22.5128
27.3691 -80.2232 30.8174
22.2026 -36.7914 44.1412
5.3716 -45.0344 27.9484
2.7601 -70.5112 32.1972
28.1770 -74.7417 30.2305
5.7376 -52.4284 26.9053
6.4619 -37.7438 35.3656
6.7708 -51.2451 42.0459
22.4613 -78.5453 23.4552
26.9264 -56.9844 34.8643
8.5173 -76.2101 45.4515
6.6736 -49.3612 25.4790
28.8166 -48.1428 34.7686
28.2579 -78.2715 39.1840
17.3738 -36.1108 44.3493
27.9164 -39.2477 26.9616
25.1899 -54.7292 42.2837
4.7027 -42.1683 32.1271
28.0501 -78.2006 30.4860
28.9338 -79.3341 36.2689
7.4505 -37.5827 26.6590
3.7127 -64.0266 37.3985
23.3938 -75.1788 45.2932
3.1234 -77.2016 29.3972
2.8679 -76.3078 36.5584
25.9068 -47.6098 42.2200
18.2820 -80.2086 21.7957
6.4552 -37.6876 34.4796
3.5399 -71.1605 38.4869
5.7042 -49.6385 40.3097
6.4844 -75.8694 43.8628
26.0944 -53.8723 40.3739
19.3713 -64.5789 46.3006
9.8989 -68.6610 45.4953
27.2864 -48.0895 39.4626
25.9036 -57.2971 40.3127
4.0420 -78.3656 27.4423
7.5490 -39.0368 25.3918
9.8974 -77.8048 21.3789
27.6446 -69.9856 29.9765
27.3210 -56.1358 32.0048
8.5349 -37.8282 31.2525
7.4418 -41.6864 24.7908
29.3832 -38.8929 34.8773
8.5031 -56.0184 23.5674
28.4677 -52.3255 32.6106
3.0937 -78.4232 33.9000
21.2836 -58.5021 23.3669
6.7851 -39.4813 40.5722
23.8802 -79.3192 44.3434
4.1489 -56.1020 30.4471
27.0031 -57.4920 31.1242
23.8624 -71.0691 44.4912
24.2086 -37.7441 43.2600
20.8257 -68.2230 45.7892
16.7234 -57.4656 46.3674
2.7825 -71.7695 35.7524
28.6737 -80.2232 35.3426
4.3782 -52.5248 37.8276
4.5521 -58.7101 39.4369
2.8895 -72.0433 30.0018
4.4484 -48.5269 30.3651
28.9469 -79.3139 34.5371
8.1802 -37.6865 25.3873
28.9457 -78.4900 36.9504
25.5870 -71.6405 42.9395
28.9250 -37.7131 34.1998
3.8145 -76.6649 27.2429
10.3756 -53.3639 22.6798
7.3077 -68.3583 44.0349
29.5994 -42.1090 33.7149
7.2760 -37.6873 40.4535
25.5252 -36.7765 39.9042
28.3376 -79.8229 34.0050
28.9232 -38.7066 31.0932
23.5156 -67.6949 44.2207
4.9868 -64.0122 26.6770
28.7193 -76.4638 36.1839
26.8315 -79.3105 41.3589
17.0625 -37.7946 25.6287
27.2240 -62.2683 38.0263
28.0280 -52.7037 30.4699
2.5100 -76.8550 32.9444
28.4301 -71.2459 36.4375
5.2350 -79.3122 26.0434
28.2463 -79.8232 33.1195
24.4622 -38.5927 23.3589
26.5491 -56.6578 36.9454
23.7883 -37.4449 25.4717
24.4349 -37.6823 23.5934
10.1543 -37.6804 23.1712
23.0473 -46.9015 23.7391
27.4870 -42.2867 39.6629
27.3460 -52.6756 28.8802
27.0345 -77.1017 28.5207
14.8574 -39.0656 45.9796
5.6060 -39.3459 36.5689
26.5857 -58.9332 36.4416
28.6272 -74.5204 32.2574
28.0253 -52.5322 34.8953
4.5671 -45.3794 35.5119
27.3629 -77.8386 41.1885
23.9303 -55.4209 44.1029
23.0097 -38.5523 22.8350
28.0489 -67.3814 32.6990
3.8456 -79.3275 30.1671
3.0913 -78.4063 31.0183
29.2047 -43.7887 30.4236
24.7128 -61.4931 43.1434
6.4125 -37.7292 29.8478
25.9098 -67.8367 26.2412
8.8363 -47.3096 43.7595
5.2670 -61.0281 41.1677
27.3010 -67.2114 39.1816
27.7908 -37.6400 37.2320
29.3885 -40.3683 35.6685
4.3291 -75.6933 40.6855
21.6834 -80.4134 25.8448
12.1060 -80.2288 20.8487
20.3705 -80.2084 22.5837
4.3225 -78.7287 35.4808
22.1830 -50.2756 45.6951
18.9088 -36.4325 43.8122
16.4139 -79.8779 21.3042
16.3100 -79.9766 20.8621
7.9173 -37.3064 35.1929
12.0462 -37.5535 23.9882
19.3325 -80.0963 31.0176
21.8920 -80.1956 23.6065
28.0755 -37.4525 36.2477
12.6495 -79.8687 25.1036
4.3956 -79.2163 29.7085
16.2221 -79.4671 44.7230
24.0818 -37.0292 33.0660
13.8623 -37.6762 21.3897
23.0549 -40.0845 44.9255
27.6541 -37.6208 27.0441
16.9088 -37.1141 31.4326
7.7857 -38.4244 41.9182
26.2824 -37.6074 39.8823
26.2759 -37.0925 39.0098
26.4765 -57.3571 29.0650
10.7301 -79.3620 21.5127
8.4239 -79.8186 28.2533
5.9346 -38.5009 34.0257
19.6470 -38.1347 23.0049
3.6926 -79.2609 33.3889
9.0972 -78.4576 45.5500
4.3578 -78.4456 39.7285
6.6646 -37.6881 28.1041
22.2668 -38.0408 23.6012
7.0862 -37.9409 33.2753
27.0809 -61.9133 34.1542
24.8912 -79.8201 37.5266
17.0705 -36.2878 40.0967
27.4242 -39.1757 39.3564
4.1091 -49.4854 33.3804
17.2156 -36.4611 45.3661
12.3850 -79.8360 22.3883
7.6558 -37.5178 27.9708
23.6304 -36.6613 42.6098
23.5644 -39.4603 22.6735
4.5867 -79.2521 27.4320
24.7756 -80.0472 29.1957
17.8490 -80.1201 22.1053
14.7423 -79.6332 21.0229
25.9957 -77.8160 43.1552
11.5277 -79.4524 44.0211
9.0374 -37.3519 24.4429
5.5484 -39.5692 29.4457
4.0646 -72.1845 26.9890
27.2836 -79.7358 36.9316
5.6638 -79.4540 30.6786
12.1549 -54.1299 45.4355
25.9324 -80.3554 33.0312
3.3402 -63.1565 34.5330
26.0270 -78.5369 26.9827
15.9536 -79.7571 39.3091
9.9748 -37.3409 23.5772
20.1332 -79.3232 46.3551
11.7939 -77.6807 46.8417
7.7157 -36.7420 39.5237
15.5204 -36.3429 44.3046
27.1031 -79.3593 29.7657
21.4995 -79.6882 42.7190
17.8406 -37.9205 22.4544
22.2725 -38.5843 22.0007
9.0472 -37.4114 26.4575
27.5893 -80.1023 34.0130
4.5489 -67.0872 40.2318
6.5359 -38.2077 31.1746
24.8361 -36.8224 41.0847
27.4876 -80.2183 32.0782
7.2155 -37.1347 35.3472
16.2693 -35.9778 44.7688
7.9078 -79.1512 36.7662
7.1233 -37.3449 39.0397
14.2653 -36.3424 42.1267
7.9733 -79.3331 22.8657
6.7275 -62.1441 24.3729
25.6112 -79.8457 28.1932
5.8720 -38.5698 30.9763
11.2322 -36.7212 43.7141